ncols         267
nrows         47
xllcorner     267109.519672
yllcorner     820776.903851
cellsize      90
NODATA_value  -9999
0 0 0 0 0 0 0 0 0 0 0 0 0 0 0 0 0 0 0 0 0 0 0 0 0 0 0 0 0 0 0 0 0 0 0 0 0 0 0 0 0 0 0 0 0 0 0 0 0 0 0 0 0 0 0 0 0.4114099 0 0 0.122375 0.3521768 0.6439198 0.8859134 1.246048 1.16286 1.771568 2.116477 2.199928 2.429959 2.68061 1.789509 2.034265 5.713299 8.562173 11.49717 15.25597 19.03274 18.27183 18.44791 18.72677 19.3806 13.57767 8.571031 7.742241 7.742 7.960006 21.29437 31.17186 29.95596 39.00993 41.85741 48.44757 50.0799 52.51849 54.57215 54.65649 49.38265 48.26485 28.47523 34.75655 36.5201 42.4445 51.13008 62.45552 61.677 50.94124 44.42945 49.39105 49.64959 50.0434 48.45374 38.40791 36.51443 39.74953 41.56892 42.71223 41.10765 39.71631 40.99942 42.07744 41.91112 40.742 40.742 40.6132 39.53958 39.74239 41.23739 42.7487 43.12038 42.75081 41.81538 39.75905 40.27781 41.25819 41.75643 42.69986 42.742 42.73078 42.6987 42.62038 41.69949 41.68416 42.58561 42.11621 41.27934 40.742 39.79134 39.742 37.6286 37.21564 38.29425 38.72942 40.03236 40.04538 40.0328 40.74141 39.81715 39.78816 39.39697 38.742 38.742 38.742 38.742 38.742 37.76538 35.63158 33.10875 29.37223 27.39093 29.08426 33.0338 33.6554 34.11262 35.57879 34.47059 39.70614 40.21371 36.37892 33.85227 29.33757 30.32015 25.51082 17.27324 15.55004 16.17668 16.738 16.738 16.738 21.50032 21.52682 22.72293 26.85126 24.98646 21.68002 16.738 16.738 16.738 16.738 16.738 16.738 18.41042 23.27711 21.38196 17.44318 22.43064 27.11006 29.46179 30.27915 32.12157 34.51977 36.45008 35.66993 34.32119 30.73772 23.90205 25.23884 31.18514 25.9185 30.75187 33.47908 34.04466 33.35344 31.22086 28.28622 31.39824 32.76204 32.70996 31.71912 15.84227 15.738 15.738 16.57829 16.91286 21.79686 25.06557 26.19454 24.10755 19.3705 13.86311 13.738 13.77634 17.70245 14.08547 18.40372 19.56437 20.49481 12.738 12.738 12.75708 18.31697 20.639 17.2979 12.738 12.738 12.738 12.738 12.738 12.738 12.738 13.44888 16.34694 12.738 12.738 12.738 12.738 12.738 12.738
0 0 0 0 0 0 0 0 0 0 0 0 0 0 0 0 0 0 0 0 0 0 0 0 0 0 0 0 0 0 0 0 0 0 0 0 0 0 0 0 0 0 0 0 0 0.3411385 3.497951 3.544856 0.6457796 0 0 0 0 0 0 0 0.01079876 0 0 0.1370781 0.3665105 0.6228883 0.8756691 2.031728 1.131747 1.809593 2.176121 2.224145 2.390049 2.666903 2.795176 5.746516 8.426242 11.30522 13.05523 17.20268 18.13634 20.60874 19.19521 19.10394 18.31099 13.31335 8.943757 7.742 7.742 18.234 22.71856 33.52116 30.35208 41.6658 48.29549 53.11824 50.61241 49.18 55.74992 53.36951 49.81601 48.03465 37.06729 39.59698 40.73022 44.26685 48.41145 58.45448 61.1041 54.60398 48.3334 52.56207 51.12939 47.58197 47.05699 36.93334 37.17837 42.47565 45.51423 43.63824 42.68219 42.64963 42.36512 41.742 41.02199 40.00176 39.95574 38.53611 37.81099 39.94333 40.7784 41.79397 41.77937 41.76089 41.36633 41.34858 40.47509 40.742 40.74229 41.742 41.742 42.48391 41.742 41.742 40.742 40.742 41.74713 41.44596 41.742 41.69651 40.742 40.32473 37.19429 35.81201 35.06002 32.86538 38.31799 39.742 39.742 39.742 38.74455 38.742 38.742 38.742 38.742 38.742 38.75787 38.77776 38.41453 36.59686 33.54038 31.02601 29.55024 29.66068 32.42833 32.84813 33.80426 33.74561 34.06779 37.01523 37.53665 36.66316 33.7854 32.4828 32.25188 27.46791 24.68943 24.55887 25.72153 16.738 16.738 23.52085 24.7443 23.96074 24.48795 23.53823 22.80135 22.68664 16.738 16.738 16.738 16.738 17.01943 18.3541 23.59409 32.97757 29.3471 21.85281 21.88434 26.4741 31.97215 33.18298 35.15702 36.09848 37.95699 36.81922 35.53217 31.35061 24.87221 27.65557 28.53188 22.77327 28.15485 31.1932 32.738 33.01867 32.17981 26.72565 30.08784 32.73949 32.73991 31.65978 18.14401 15.738 15.738 15.738 17.90527 18.09295 23.92958 24.43904 21.56116 21.06464 18.29696 13.77416 13.738 13.76809 13.738 20.18982 24.7324 12.74717 12.738 12.738 12.738 12.738 13.34671 19.45838 15.53305 14.29878 13.52206 12.738 12.738 12.738 14.59636 21.77187 13.81279 12.738 12.738 12.738 12.738 12.738 13.37508
0 0 0 0 0 0 0 0 0 0 0 0 0 0 0 0 0 0 0 0 0 0 0 0 0 0 0 0 0 0 0 0 0 0 0 0 0 0 0 0 6.004951e-005 0.03239689 0.03555066 0.03266858 1.853295 8.407949 11.39144 11.78749 8.480313 2.847921 0.5944294 0 0 0 0 0.4463474 0 0 0 0.1494178 0.4237153 0.6371363 0.8104131 1.434744 1.053215 1.647695 2.39717 1.97646 1.75818 2.596899 2.898957 8.713904 13.83451 15.00092 16.23627 19.41304 21.41735 21.71172 20.69333 21.57157 19.70623 12.68752 7.765716 7.742 12.35786 17.65363 24.67551 29.97338 30.78025 40.02229 52.28703 55.27726 49.0173 47.75756 55.0602 48.83898 51.76087 46.922 47.39077 44.25602 46.61143 50.49279 49.97967 50.9986 55.75215 56.81224 53.97321 53.16501 47.97523 44.8061 45.264 37.32428 40.43827 47.08328 46.93438 43.42024 42.70436 42.07692 41.27597 41.58704 40.14552 38.60936 37.77618 36.4891 36.742 40.12479 40.742 41.18731 40.95346 40.10127 40.72447 41.72468 40.77509 40.742 40.79653 41.78693 41.80408 42.69291 41.83653 41.85219 40.89867 40.80741 40.54013 40.04173 40.53405 40.74158 40.742 39.38261 37.38408 32.58211 33.06027 22.84834 33.01134 40.04865 40.74195 39.76506 39.742 39.742 39.70434 38.72463 39.742 39.742 39.742 39.74199 39.34978 36.71208 33.95358 32.80566 33.6039 33.68524 32.40607 31.5806 32.45464 33.73586 35.8294 36.04905 36.04506 36.87328 35.49988 34.87508 33.78164 28.33946 31.57809 29.87715 26.15256 16.738 16.738 24.752 22.57281 21.99899 21.89881 20.69623 25.44142 24.19967 16.90506 16.738 16.738 16.738 19.14504 24.03609 31.26452 38.52747 33.55517 23.93538 24.81147 29.23422 34.08684 34.26445 34.68286 36.83533 37.92697 37.39452 35.50212 34.55882 30.80006 22.68706 20.58161 22.42841 27.67928 31.55076 32.92382 32.88084 29.08154 23.12473 29.9369 32.66334 32.73066 32.67111 24.36205 15.738 15.738 15.738 15.738 19.95372 23.36976 22.28661 19.76073 21.35848 21.55949 15.56532 13.738 13.738 13.738 20.17887 24.71451 12.738 12.738 12.738 12.738 12.91526 16.59048 18.12573 16.74042 18.14019 19.37034 18.49931 13.35575 13.21282 18.88793 24.08515 13.45485 12.738 12.738 12.738 12.738 12.738 12.93331
0 0 0 0 0 0 0 0 0 0 0 0 0 0 0 0 0 0 0 0 0 0 0 0 0 0 0 0 0 0 0 0 0 0 0 0 0 0 0 0.0002249777 0.5369778 5.091179 3.765254 3.419353 4.649815 8.231801 10.89333 13.75669 13.4359 10.09394 6.071002 0.7605452 0 0 0 0 0 0 0 0.150251 0.4833407 0.7616345 0.738423 1.218385 1.013281 1.210509 3.228617 4.284787 5.091733 6.269321 7.715111 10.74388 15.81256 16.67409 16.09529 20.41406 22.7753 20.93466 20.9958 22.45914 20.23107 11.84592 7.742 7.742 16.16925 19.70544 25.26652 28.32657 28.88778 31.77332 47.2306 52.08431 53.62391 53.08102 54.77237 49.02456 55.71063 51.42836 51.07158 49.52904 44.7123 47.11348 52.89032 58.63953 56.4064 55.38904 51.80514 47.71119 38.48671 42.16012 44.70639 39.66061 45.43887 50.89352 46.64302 42.40272 41.34917 39.4676 39.71095 40.1401 38.72351 36.73917 35.65092 34.73053 36.79571 39.76995 39.87379 40.111 39.80561 39.58879 40.69446 41.742 40.7407 40.72213 40.68903 41.36432 41.55932 41.46986 41.40456 40.89844 40.26762 39.79302 39.07141 39.60363 38.92205 39.90506 39.91923 38.87842 37.80224 32.90776 32.51397 20.10701 30.86635 39.742 39.742 39.44782 38.70284 38.50563 38.49662 37.64891 38.742 39.16818 39.38468 38.35746 39.67175 37.86969 35.04047 34.32811 34.20815 34.57478 30.86843 28.96871 32.06991 34.46335 37.24894 36.95716 36.56381 35.48654 38.24856 36.72446 35.61399 30.8698 35.02779 31.72379 22.93261 16.738 16.7431 27.55479 19.29522 16.738 16.738 16.738 16.738 17.64808 18.16139 16.9519 16.738 16.80577 19.91501 25.1723 34.084 38.85703 35.97676 29.67626 27.21674 30.16909 34.6976 34.19891 33.21939 35.93188 38.61939 37.73238 35.85839 34.00124 33.02518 29.27943 28.24343 26.48705 21.98274 25.12967 30.7351 30.95545 28.4395 22.94426 27.84406 31.6027 31.738 31.6956 29.40629 16.32047 15.738 15.738 15.738 19.22948 22.94545 21.96554 19.48671 19.07634 18.17111 19.12036 13.99928 13.738 13.738 18.08578 22.24277 13.26519 12.738 12.738 12.738 12.738 16.85994 17.97251 16.65727 18.81638 19.9386 18.49718 17.32073 16.60188 17.33782 22.17286 13.37433 12.738 12.738 12.738 12.738 12.738 12.71842
0 0 0 0 0 0 0 0 0 0 0 0 0 0 0 0 0 0 0 0 0 0 0 0 0 0 0 0 0 0 0 0 0 0 0 0 0 0 0 2.069719 6.491494 8.096107 7.211626 5.717317 5.751812 7.445964 9.672038 12.09197 13.68556 13.16481 10.8852 5.090008 0.01631908 0 0 0 0 0 0 0.1502912 0.4863024 0.9413015 0.9292573 1.062474 2.471644 2.202948 3.346488 7.348182 10.55151 11.14846 11.04023 13.51914 15.73855 16.6912 15.742 20.63284 23.16523 20.15371 21.17859 22.58436 19.5017 7.950469 8.445123 10.15821 18.22234 22.88458 26.5691 28.33274 27.3264 24.52471 42.41815 50.43727 55.89812 57.46939 56.40873 53.15007 58.53348 56.44464 49.17968 52.29225 53.75589 54.68478 56.95899 58.88346 54.79491 52.09172 52.73129 49.78846 37.41974 37.86192 41.82464 38.46199 50.67067 48.51156 44.48148 42.57436 40.56775 39.73386 39.7219 38.71087 37.03752 35.59507 34.5061 32.48134 36.89027 39.51792 38.78047 39.01915 39.01859 40.07133 40.74001 41.742 40.90565 39.77743 39.80617 39.83728 39.742 39.742 39.742 38.96856 38.742 38.742 38.72758 39.38438 37.74265 39.43274 39.53704 38.79736 38.33897 35.44184 32.4957 21.15319 32.79898 39.78067 39.79535 39.35363 38.64452 38.00542 38.01285 37.42633 38.68555 39.29965 39.51311 38.50538 38.75749 36.85508 35.74307 35.57919 35.72752 34.34411 31.14968 28.8018 30.40726 33.77206 36.07011 36.88239 37.78017 36.17902 38.75676 38.40909 37.61492 36.95756 36.44902 30.13527 18.08409 16.738 16.99778 27.73569 16.98312 16.738 16.738 16.738 16.738 16.738 16.738 20.60153 23.15639 21.11598 20.67742 24.01674 32.51157 36.11979 36.37558 33.53495 30.09548 32.14364 34.738 33.74262 32.738 34.97049 37.06774 36.67981 35.41647 33.85976 33.20337 32.3807 33.31469 27.45214 21.62904 25.47298 29.73765 30.738 27.06414 22.20573 28.67616 31.07804 31.87057 31.03981 29.60469 22.65881 15.738 15.738 15.738 16.41389 20.71979 24.54435 19.46415 14.57024 14.42652 14.46484 13.62667 13.738 13.738 17.32006 14.36088 12.738 12.738 13.28276 12.738 12.84471 17.16927 14.88502 17.01466 18.55494 18.738 16.97705 19.6471 17.80418 15.47543 19.8292 12.738 12.738 12.738 12.738 12.738 12.738 12.696
0 0 0 0 0 0 0 0 0 0 0 0 0 0 0 0 0 0 0 0 0 0 0 0 0 0 0 0 0 0 0 0 0 0 0 0 0 0 1.495156 6.367276 8.91049 9.390748 8.695034 7.365174 6.741087 7.139045 8.62697 10.03618 12.36555 13.31752 13.11164 7.439737 3.105765 0.002143405 0 0 0 0 0 0.1490825 0.4569123 1.034059 1.259583 2.440625 4.815838 4.409082 4.736608 8.871495 13.66961 14.7123 14.70869 15.71451 16.69774 16.74071 17.07353 21.23059 20.50818 16.52075 19.88414 21.11915 15.10709 12.66861 13.29835 15.25282 18.12484 23.86643 28.34766 28.96268 26.52969 22.70607 39.26231 48.82258 53.79154 58.22509 57.95316 56.0227 59.56071 61.69 50.88712 54.48295 61.74409 62.04758 60.9376 56.67981 53.69112 50.79999 51.29636 50.41226 42.69505 41.10666 44.25019 42.14883 50.26098 47.31657 43.76195 43.40966 39.742 39.80743 39.60494 37.9241 34.57021 33.21841 34.70441 33.2691 35.6519 37.65715 38.0886 35.08381 39.77089 40.6532 40.78424 41.67997 41.93019 40.9757 41.54415 40.73705 40.62972 40.66383 40.62648 39.70412 39.72963 39.45826 38.58221 38.60024 37.73186 38.742 38.61895 37.82258 39.14182 36.91343 31.75039 22.70489 34.05291 40.61235 39.59832 39.47195 39.33571 38.83771 38.48936 37.8866 38.27044 38.17616 38.11123 38.08448 38.03457 35.87306 35.07761 35.7816 35.75737 34.26208 29.29837 26.39602 27.14199 32.4758 33.98799 34.95586 35.02032 35.75952 38.18858 39.9898 34.9637 35.93409 32.64383 29.87834 16.91825 16.738 16.738 17.07828 16.738 16.738 16.738 16.738 16.738 16.738 16.738 17.21092 25.04501 27.14615 26.5115 24.72877 30.12585 34.45333 36.72346 35.62296 34.51667 35.45152 34.79158 34.1807 32.3511 33.98675 34.07988 34.05712 34.06389 33.0969 32.64193 31.91031 34.65037 28.44944 24.82052 24.65059 28.64322 30.47156 25.35378 23.2701 29.14418 31.49278 31.49162 30.56571 29.60223 26.05252 15.738 15.738 15.82992 21.53989 17.56017 24.38816 20.26241 13.738 13.738 13.738 13.738 13.738 13.738 14.8166 13.70933 12.738 12.738 13.85043 22.63622 20.0087 17.3556 12.41701 15.53705 19.69251 18.93782 17.16451 18.67226 19.18849 19.41893 20.32002 12.738 12.738 12.738 12.738 12.738 13.68715 13.53311
0 0 0 0 0 0 0 0 0 0 0 0 0 0 0 0 0 0 0 0 0 0 0 0 0 0 0 0 0 0 0 0 0 0 0 0 0.2573124 1.812583 4.547132 6.374737 7.754427 8.742001 9.228485 8.643732 7.598922 7.111196 7.74655 9.346885 10.72533 13.47215 13.97757 9.689149 5.894513 0.4878426 0 0 0 0 0 0.1459896 0.4148782 1.00933 1.829846 7.155121 8.118993 5.253059 5.506142 7.704156 11.16243 13.40334 16.09167 17.52568 16.79047 15.79012 16.86941 19.39662 18.55346 17.23813 16.66435 17.22979 12.12823 11.51941 15.2816 17.19372 17.02279 22.83768 27.89764 31.66224 26.46252 26.27849 38.03598 44.59717 47.6473 52.78738 56.2732 54.99534 58.20878 65.83127 57.12605 56.25244 62.11226 62.24079 61.42844 53.70277 52.95732 50.1251 49.02801 50.01251 47.18445 46.12177 48.21816 48.53405 48.89425 47.64687 44.30329 42.92049 39.89457 40.742 39.72595 36.30326 31.83635 30.92899 32.27473 31.79656 34.17542 34.89315 37.12466 34.68602 38.19708 39.15525 39.40979 40.27446 41.16658 40.12873 40.93364 40.74974 40.742 40.742 40.742 41.23722 40.37757 39.70303 38.817 37.71071 36.79644 38.742 38.05001 36.742 37.65533 36.61918 31.8974 23.672 34.49997 39.7823 38.17187 38.07972 38.02633 37.97744 37.78398 37.742 37.14262 36.78603 36.76454 36.76519 36.77052 35.10895 35.38985 35.91557 34.74804 33.72537 28.09179 22.86458 23.27877 30.31069 31.49485 30.13651 30.05775 34.45429 36.98017 37.60612 34.24186 32.66289 31.30799 30.47542 16.92271 16.738 16.738 16.738 16.738 16.738 16.738 16.738 16.738 16.738 16.738 16.738 23.81625 31.37264 31.9947 25.39689 27.57661 35.45147 36.35659 35.71753 35.89749 35.04292 34.68793 33.71075 31.738 31.86255 32.738 32.367 32.88119 32.3573 30.75599 31.95053 33.28023 33.07807 29.69403 21.89359 26.63939 28.89 24.55543 24.41754 27.62772 30.72632 29.99273 29.738 29.738 27.59042 17.45218 15.738 19.62319 16.96312 18.32319 23.66434 21.7172 19.41556 15.45865 14.51586 13.738 13.738 13.738 21.81439 22.62693 16.2082 15.02849 16.52603 21.30946 21.40595 18.75333 12.53976 15.71269 20.20519 15.82668 14.48603 17.51044 21.73137 23.71436 18.70556 12.738 12.738 12.738 16.1079 24.42459 23.13249 20.08766
0 0 0 0 0 0 0 0 0 0 0 0 0 0 0 0 0 0 0 0 0 0 0 0 0 0 0 0 0 0 0 0 0 0 0 0 0.4186244 4.98058 6.971598 9.27348 9.985472 9.58727 9.689224 9.635528 8.693173 7.733151 7.742 9.165822 10.74122 15.12805 15.748 12.64018 7.838161 3.426297 0.003311207 0 0 0 0 0.1423401 0.3445532 0.9563723 5.2653 9.762802 10.47694 6.313685 4.434592 5.462547 8.633247 11.73007 13.70051 14.94765 14.86461 15.30576 15.67519 15.37535 15.20285 15.23638 14.41914 14.8312 11.19423 11.73112 14.88266 15.40136 16.18124 23.20589 28.5092 34.84194 30.06695 24.9751 32.95105 35.14063 36.60727 46.34772 53.02777 54.641 58.17211 67.19981 61.56611 58.65082 55.68332 57.01797 54.96688 51.86538 50.99489 49.381 53.51707 50.34532 46.73228 45.82121 48.05769 49.85743 47.6914 47.60365 45.10306 42.09108 40.742 40.40101 38.3558 34.18929 28.96409 27.83523 29.70378 31.75836 33.742 34.08219 36.02203 37.30593 37.4981 38.76306 39.67728 40.36863 39.8592 39.74198 40.742 40.742 40.742 40.69137 40.25581 40.19776 40.07713 39.742 39.66921 38.74045 37.74131 38.742 37.90218 36.81251 37.65747 36.96888 33.49541 27.81707 33.1821 38.34716 38.33231 38.00566 37.53376 37.70792 38.06083 38.61879 37.77808 37.71257 37.73468 37.73106 37.73783 35.8218 36.58194 35.742 34.93044 34.78687 29.36509 24.23695 23.07953 26.90051 27.98979 23.4435 26.44887 32.37604 34.18188 34.14444 31.9904 31.01684 30.21499 27.28464 16.87832 16.738 16.738 16.738 16.738 16.738 16.738 16.738 16.738 16.738 16.738 16.738 21.81908 31.33926 32.67499 25.48011 24.08809 32.19673 36.69989 36.69827 36.10424 35.7434 34.738 33.56218 32.73658 33.05385 33.77737 31.78732 30.55736 30.48759 24.66113 29.52247 32.01044 29.08773 31.45906 26.52427 23.98051 26.17175 24.2956 24.42891 27.36559 29.73425 29.738 30.68686 29.18709 28.10399 21.93854 15.738 15.738 15.82317 22.44721 23.15872 23.74952 23.94532 22.3127 21.32387 16.4773 13.99793 16.82892 24.54398 25.00309 20.30307 19.52497 21.35007 18.34834 19.79372 18.79621 13.71059 15.20005 18.28962 13.19749 11.81738 14.6863 21.52329 21.23601 15.93877 12.738 12.738 12.738 16.01424 25.30384 24.21292 22.79815
0 0 0 0 0 0 0 0 0 0 0 0 0 0 0 0 0 0 0 0 0 0 0 0 0 0 0 0 0 0 0 0 0 0 0 0 0.06148981 3.280427 5.828678 9.312388 10.89658 11.02682 10.19776 10.25107 10.33304 9.387484 8.397722 9.137899 9.778958 12.52388 13.32465 13.84236 8.920253 5.7963 0.07097299 0 0 0 0 0.1396925 0.2594745 1.66482 8.01815 9.739154 11.7776 9.431455 3.11449 2.013762 7.985043 11.85924 11.76799 11.75778 11.74789 15.05481 16.69888 12.42715 12.60286 12.90573 12.68545 12.84215 11.99575 13.68117 13.73272 14.55414 19.11631 25.04953 30.78315 34.63745 28.71726 26.75357 31.39796 29.71744 31.31458 39.65883 45.51618 51.93321 57.2268 62.00411 64.19626 61.79686 56.87893 55.68801 52.10501 51.71744 51.59761 47.58247 52.7328 48.30391 46.741 44.45678 47.81622 49.02488 46.52599 45.44472 43.81675 42.0765 40.53473 38.8252 36.68436 32.3186 25.00519 25.50118 30.37605 34.05078 32.76875 37.05547 38.742 38.86906 38.84332 38.76065 40.52708 40.81663 39.8661 39.83923 39.99256 40.71291 40.00983 39.60736 38.84161 38.87725 39.742 38.73442 39.75106 39.43644 38.23533 38.73796 36.87245 36.55587 37.13706 37.44448 36.46749 32.32249 33.95535 37.62284 37.78611 36.97575 36.14819 36.55285 36.7159 37.56778 36.88529 36.77085 36.73298 37.27458 36.742 36.50554 36.10739 34.742 34.80368 35.73383 30.95475 25.83774 24.86058 26.42818 27.05625 25.66972 27.3082 27.30886 28.60154 30.86918 29.834 28.87932 27.21671 18.60883 16.82913 16.738 16.738 16.738 16.738 16.738 16.738 16.738 16.738 16.738 16.738 16.738 17.81484 28.36848 30.93899 24.77777 23.0107 27.457 35.34476 35.58831 35.76101 35.738 35.13097 33.27631 30.94752 32.738 32.64264 32.65293 31.12887 25.41878 20.58498 24.29937 23.80322 28.18628 30.09288 27.47289 24.53104 25.05936 25.64595 26.17782 28.52363 29.72723 29.738 30.738 29.49692 28.1761 24.91363 14.98197 15.738 15.79492 24.2583 25.32445 25.74598 26.6677 24.15898 22.62527 23.64065 18.6433 22.57442 25.88389 25.76984 21.06414 21.61693 23.71752 21.71442 20.84437 19.36765 15.96186 13.74064 14.17108 13.67121 11.77098 11.78358 18.9301 17.46989 13.78987 13.02268 12.738 12.738 18.33645 26.18172 25.50547 23.45794
0 0 0 0 0 0 0 0 0 0 0 0 0 0 0 0 0 0 0 0 0 0 0 0 0 0 0 0 0 0 0 0 0 0 0 0 0 0.1278845 3.321527 7.051365 10.36271 11.36355 11.22928 11.21286 11.19197 9.717018 9.183928 8.742 8.742001 8.685802 9.460418 11.26283 8.748302 6.818539 0.346244 0 0 0 0 0.1327232 0.1810037 4.182312 9.491837 8.162126 10.23047 11.28276 2.5748 -0.4377699 0.2825702 11.6422 12.16085 11.66273 11.33704 15.11135 17.75303 12.67925 12.57325 12.34378 10.75515 10.54858 11.02247 14.74547 13.97003 15.16562 22.78485 27.9929 32.6887 31.97346 25.9402 28.2295 31.32291 26.98564 29.7407 35.4332 38.1082 49.61516 55.60605 60.13175 65.26124 64.80219 61.42412 55.81179 56.20726 57.19242 54.00206 49.0944 49.68797 46.36148 45.12172 45.78943 46.27529 44.00151 41.66723 41.33918 41.2683 39.7074 38.04007 36.01179 34.79421 34.04863 29.05649 30.68647 33.59022 33.11069 33.7781 38.81654 38.75332 37.7152 37.49269 36.26598 39.20142 39.2354 38.24249 38.09869 38.77944 39.39519 38.90318 37.83913 37.742 38.41381 38.742 37.97554 37.14481 37.06274 36.91607 38.27122 36.68642 35.742 36.44613 36.75659 36.72397 35.3209 36.20248 36.742 36.742 34.91106 33.94617 35.53443 35.742 35.74826 36.75489 35.77316 35.76652 35.75661 36.28658 36.61117 35.82264 34.9472 34.84672 35.53151 30.09413 24.83308 25.73663 29.71247 28.45712 29.23813 31.95405 28.0789 28.1281 29.06479 28.76861 26.79495 25.17612 23.59489 18.41542 16.738 16.738 16.738 16.738 16.738 16.738 16.738 16.738 16.738 16.738 16.738 16.59769 24.88017 28.42038 23.93697 23.6866 24.85557 31.65423 32.91037 35.10651 35.738 35.304 33.76716 29.02882 30.70858 27.58037 27.26109 28.73887 19.28026 19.72176 22.02901 21.44934 26.82623 28.71584 28.6952 26.60412 23.32275 25.25533 27.34947 29.23761 29.738 29.81494 30.738 29.738 29.33861 27.36077 19.84788 15.21305 16.0952 25.46763 26.50725 27.49111 27.8021 26.1705 22.03721 25.18646 19.61028 26.07163 27.06448 26.11934 23.08928 23.52654 24.69607 23.67681 23.67536 23.30316 19.24093 15.17621 14.61117 14.738 13.66172 11.47482 18.51814 18.42511 17.00363 15.86327 15.97444 15.33829 21.30814 25.66393 26.16253 25.00132
0 0 0 0 0 0 0 0 0 0 0 0 0 0 0 0 0 0 0 0 0 0 0 0 0 0 0 0 0 0 0 0 0 0 0 0 0 0.02992088 1.812672 4.565926 7.555859 9.806819 10.50633 10.742 10.742 8.914844 8.742 8.63612 8.624392 7.328127 4.69993 5.47398 7.435745 5.92491 1.166546 0 0.08719805 0.0920085 1.788187 0.3010056 4.744697 9.523973 8.948562 6.379052 5.667878 6.603622 1.087428 -0.2701852 -0.2376265 -0.02355555 10.76595 12.09923 9.964695 16.56321 16.82561 14.21 10.17325 9.669454 11.52232 13.17601 11.67564 14.75887 15.15574 13.79988 21.1353 30.56064 32.92572 31.91584 27.60076 26.92259 27.88401 24.93487 29.09177 34.6959 36.39636 48.18158 54.17363 64.42058 66.05411 65.66241 64.72032 55.8812 60.2114 63.62968 57.13405 51.94398 45.05213 44.67013 46.70643 47.73445 44.88564 40.75001 37.84542 38.06443 38.51899 38.29671 36.74335 34.08059 32.38109 34.0211 31.50078 33.32856 34.74131 33.99418 34.5345 37.52931 36.50512 36.98713 34.48363 31.90691 38.35501 38.83561 38.76154 37.74308 38.742 37.88034 37.82858 37.95543 37.95749 38.41616 38.73133 37.91841 37.17894 36.742 36.742 37.60047 37.03926 37.07113 37.24908 36.78704 37.04166 36.64534 36.39373 36.742 36.742 32.43877 31.37412 36.25384 36.80377 36.90252 37.62334 36.8552 36.98484 36.3144 35.75071 36.43356 36.87438 35.742 35.16637 35.24512 29.80192 23.82432 28.80012 34.38778 31.85007 31.919 36.9014 32.81553 31.74434 30.47688 30.7886 29.90254 25.64255 23.56268 22.39348 16.7525 16.738 16.738 16.738 16.738 16.738 16.738 16.738 16.738 16.738 16.738 16.7458 23.15402 26.20363 24.74555 23.90136 23.68322 27.77184 28.82512 33.19349 35.85785 36.62616 36.19141 31.19287 28.16853 19.02513 17.4698 12.738 12.75053 22.63942 25.28095 27.73307 26.76135 29.35405 30.95604 29.65812 23.86688 23.92393 26.60253 28.52447 29.90289 30.42841 29.82907 29.29757 29.41471 27.8808 25.41414 19.47482 22.1236 26.08854 25.95906 27.06443 27.49133 27.13254 23.93907 26.75807 22.80241 26.75974 26.96444 26.32419 24.84762 24.71845 24.7719 23.64604 24.56037 26.1311 24.26642 19.19855 13.30469 12.53318 13.68818 11.20206 17.63054 20.29035 18.738 18.58059 18.87271 16.72405 20.27404 21.08793 24.96067 22.90983
0 0 0 0 0 0 0 0 0 0 0 0 0 0 0 0 0 0 0 0 0 0 0 0 0 0 0 0 0 0 0 0 0 0 0 0 0 0 0.04521057 0.3554177 2.90163 5.364923 9.396682 9.475505 9.263324 7.697708 6.129015 6.073407 6.025099 4.965235 3.025881 2.892285 3.705933 1.591933 0.08420181 0 0 0.06002145 0.8169839 6.406329 8.585788 11.94815 8.772648 4.43911 1.771324 -0.288897 0.3619381 -0.07365563 -0.1682511 -0.09569786 5.559339 9.769748 8.989867 16.10717 15.50596 11.15765 7.418298 8.927423 15.49533 16.37781 12.7961 15.87263 17.3633 16.25584 19.25002 28.7595 31.08463 36.61503 28.36327 27.57931 25.22491 25.16641 27.90257 37.18418 44.2901 53.77891 55.16064 64.48825 66.29431 66.76604 69.09004 58.03814 50.68402 56.20177 54.95319 50.40912 44.81718 45.74804 53.84776 45.20065 42.77659 39.80798 37.33893 37.81414 37.58402 38.10837 36.87795 33.1757 30.9485 32.69832 31.71059 32.18317 34.76699 35.31913 34.7288 34.54078 34.8115 36.73475 32.81574 31.30666 37.57432 38.5651 38.60245 37.75049 38.08941 37.60774 37.41645 37.38445 37.36506 37.2956 37.17896 37.53626 37.742 36.742 36.742 36.07246 35.96149 36.53156 36.47705 36.74538 36.33683 35.79183 36.5858 36.742 37.61067 35.11032 33.66071 36.742 36.73053 36.6398 35.8689 35.39302 37.29869 37.31476 36.84248 37.33354 36.742 36.742 36.0617 32.99303 32.41843 28.61827 34.75312 36.30764 35.31921 35.14257 37.27378 36.38667 33.34441 33.05762 32.1838 33.74789 30.73092 27.87888 26.6771 26.87838 16.738 16.738 16.738 16.738 16.738 16.738 16.738 16.738 16.738 16.738 16.738 20.56574 30.40886 24.09031 23.14255 21.51949 22.38178 22.70447 26.83773 32.70029 33.57597 34.29107 30.40208 28.71435 17.37576 20.64139 12.738 12.98068 23.63288 25.81287 29.04848 30.9944 29.88174 30.5779 31.44622 29.23015 23.63938 22.90193 26.53246 28.03005 29.12237 27.84036 28.65448 28.06265 26.98843 27.57231 25.83822 25.895 25.75382 23.94021 25.80681 26.738 26.738 26.3797 26.738 26.24781 25.738 25.72105 26.72713 25.71263 24.42333 22.6377 21.74977 22.84641 26.49769 25.39831 21.23404 15.42825 11.0626 12.10376 10.42569 15.10024 19.17024 21.38936 21.47473 20.0629 18.29571 21.10268 18.09276 22.47239 24.71613
0 0 0 0 0 0 0 0 0 0 0 0 0 0 0 0 0 0 0 0 0 0 0 0 0 0 0 0 0 0 0 0 0 0 0 0 0 0 0 0 0.4195877 1.798179 5.160996 6.351633 7.596467 7.118143 6.299605 5.894923 3.879457 2.579329 1.050408 0.4798279 0.2782941 0 0 0 0 0 0.001769023 4.538416 10.67492 9.53399 5.330896 0.6528824 -0.1839457 -0.3099935 0.2359875 0.0907555 -0.07329614 -0.07917079 1.294791 5.601193 7.893895 13.00421 13.60708 7.111012 7.694054 11.68286 17.54808 17.64233 14.62297 17.1916 16.85246 17.65579 18.64759 28.88611 31.23016 36.2769 28.82096 28.04958 23.59315 24.52016 27.40371 40.72487 48.7537 60.35558 61.77771 64.27586 67.3787 69.58739 64.61227 54.70636 45.40817 44.37662 49.369 53.99627 48.08931 47.63163 49.50626 40.46406 35.37735 36.1097 32.79908 33.90673 37.86039 34.6717 35.54253 33.73883 29.85388 29.23511 28.46586 31.87516 33.75562 33.85039 33.7438 32.97824 36.56336 36.45858 33.74192 36.23163 36.78306 36.74274 37.73954 37.742 37.742 37.16237 36.742 36.742 36.742 36.742 36.742 36.742 37.19284 36.742 36.78661 35.742 35.742 35.742 36.25833 36.72443 35.742 35.742 36.72549 36.742 36.94316 36.8197 36.10382 36.78266 36.80411 36.66805 35.6678 35.08376 36.34041 36.742 36.742 36.63786 35.42781 35.5521 34.48948 30.9096 33.15251 32.5788 35.02404 36.742 36.71827 37.05729 39.08981 38.81599 32.14223 30.05682 32.35063 35.55762 35.51587 33.62415 31.63252 29.15638 23.07278 16.738 16.738 16.738 16.738 16.738 16.738 16.738 16.738 16.738 16.738 23.5824 33.45189 27.09963 24.05172 20.10528 20.01094 20.55206 21.7333 26.99945 28.03536 30.1869 28.18091 26.8083 20.43092 24.25874 12.94136 12.738 21.78403 26.9358 28.42209 29.91579 28.42024 29.43017 29.99389 28.38151 26.0053 19.14021 24.02293 26.8158 28.16346 28.07714 27.72486 26.33459 27.33141 26.68022 26.68061 26.96546 25.69701 22.77899 26.21658 26.68706 26.91166 26.67091 26.06623 26.60905 25.84216 24.77777 27.06305 26.34758 23.10112 16.46477 17.42972 18.47518 24.33787 24.738 21.29058 19.18826 11.58462 10.99488 11.05256 13.51495 17.66734 21.28691 20.88157 19.96414 18.8854 22.52341 17.29339 19.59351 23.94225
0 0 0 0 0 0 0 0 0 0 0 0 0 0 0 0 0 0 0 0 0 0 0 0 0 0 0 0 0 0 0 0 0 0 0 0 0 0 0 0 0 0.07810429 0.3520738 2.159203 4.848598 7.139823 6.926651 5.306153 2.828618 1.727855 0.3348471 0 0 0 0 0 0 0 0 0.4390077 8.79342 4.180178 0.2590781 0.5525191 0.002272496 -0.4919222 -0.07769373 -0.06950975 0.006278797 -0.05198099 0.002281601 3.34279 5.325055 9.155951 9.032113 7.853137 11.43011 15.81174 16.14661 15.96265 16.09371 17.8759 13.36326 17.34927 18.0626 30.0751 32.66516 32.89872 27.90888 27.76605 24.64375 24.22233 28.45675 45.39167 51.53958 65.00264 69.1395 66.67327 68.19244 69.40992 60.90185 51.56754 41.78874 37.73688 43.86341 51.08902 47.32584 44.96307 40.43948 36.28901 32.64964 30.81402 25.36507 29.61307 33.30522 34.70208 34.67873 32.23494 30.58076 30.36215 31.19365 33.53828 35.03958 34.76204 34.75505 35.05845 36.35538 36.742 34.19937 38.14743 38.17646 37.48882 37.73848 37.742 37.742 37.71493 37.742 37.742 37.742 37.742 37.22615 36.742 36.742 37.09999 37.22721 36.742 36.67869 36.63487 36.742 36.742 36.742 36.742 36.742 36.742 36.742 36.71864 36.70758 36.03365 36.28082 36.60816 35.46 36.05047 35.89891 36.24501 36.14626 35.09323 34.47 34.742 33.27563 28.23078 31.05271 32.76558 33.76979 35.72969 35.742 36.34085 35.66515 37.52493 32.68445 30.10739 34.14519 36.0349 37.3629 37.88932 35.0733 32.1234 26.95393 17.09027 16.738 16.738 16.738 16.738 16.738 16.738 16.738 16.738 17.72062 31.07979 33.63346 31.45928 26.70784 19.57931 19.78093 22.06968 21.84321 24.85381 25.35607 24.97146 23.51864 24.32093 22.94973 24.39359 17.47976 12.738 17.18127 25.94126 27.33284 28.2506 28.33239 28.58474 27.87652 27.738 27.358 21.76637 21.4721 23.39558 25.93418 27.35687 27.17383 26.738 26.45555 25.19542 25.6612 26.65911 22.02727 21.20222 24.29001 23.68625 25.15716 24.16916 24.22412 25.68778 24.76771 23.94595 24.93971 26.63743 22.87881 14.18294 13.738 14.77013 21.02884 25.26829 22.54375 21.2716 13.00495 10.44419 11.68285 14.86859 18.25221 19.8435 17.83614 17.76461 18.57682 21.63257 18.79421 18.35279 21.2841
0 0 0 0 0 0 0 0 0 0 0 0 0 0 0 0 0 0 0 0 0 0 0 0 0 0 0 0 0 0 0 0 0 0 0 0 0 0 0 0 0 0 0 0 2.653958 4.660971 4.648939 3.99812 2.201097 0.1115563 0 0 0 0 0 0 0 0 0 0.01432345 0.6244178 0.01986019 -0.02442133 0.6836855 0.7570725 -0.6408031 0.06853075 -0.04850497 -0.03132425 -0.01685817 1.299475 0 3.651046 6.427329 7.742001 9.370597 14.39288 14.94046 14.53352 14.63715 17.19065 17.09173 14.74968 16.6917 17.324 24.43291 31.28722 30.06877 24.96169 30.86866 29.50282 27.99651 31.59513 51.87881 54.30455 67.55245 72.47228 69.65968 65.19665 64.15948 60.1655 51.82671 40.47652 37.45348 41.63189 44.68557 42.94871 40.37423 34.42596 33.78491 31.34822 23.64314 19.38497 28.20732 31.04044 35.73886 32.08307 30.09069 30.60345 31.71245 33.5804 34.21079 35.17856 34.48599 34.73089 36.58594 36.742 36.58113 36.02428 37.05612 37.00666 36.99485 36.96828 36.91859 36.86552 36.742 37.41863 36.742 36.742 36.742 36.46528 35.742 35.742 36.18624 36.34316 35.742 35.742 35.37182 35.33194 35.3065 35.28985 35.25576 35.21053 35.08934 35.03712 35.00998 34.31098 33.93898 33.89661 34.03732 34.3036 35.71249 35.742 35.13129 33.75625 33.39351 33.83368 34.6017 32.1945 25.65529 28.52383 30.33697 31.7709 34.58391 35.59072 34.54891 31.54708 34.97596 34.21719 33.53211 35.04342 35.73929 36.57071 36.93194 36.47252 33.80182 30.74612 27.707 16.738 16.738 16.738 16.738 16.738 16.738 16.738 16.738 23.17685 34.57911 34.01166 31.76864 27.38846 20.94686 21.12195 26.18196 27.19707 28.82168 27.70406 21.49872 19.09119 22.81252 24.76348 21.65475 21.58079 12.738 12.738 21.93117 26.38605 28.78001 28.79674 28.6553 26.7829 26.88435 27.71045 25.99425 19.92215 20.2442 25.16742 26.738 27.06531 27.13201 26.47549 25.22817 25.10991 26.56698 16.42889 14.66703 19.75747 20.89926 26.89907 26.16174 25.38663 26.69016 26.38389 26.33095 25.43069 25.7285 23.77114 16.57983 13.8909 17.10956 22.08821 23.65931 21.48923 20.16658 14.45536 9.169372 11.04619 16.61157 19.62419 19.45255 17.80158 13.75186 16.6178 16.73998 19.7797 21.08898 21.738
0 0 0 0 0 0 0 0 0 0 0 0 0 0 0 0 0 0 0 0 0 0 0 0 0 0 0 0 0 0 0 0 0 0 0 0 0 0 0 0 0 0 0 0 0.7973876 1.450683 1.806784 2.062643 2.257238 0 0 0 0 0 0 0 0 0 0 0.001357966 0.02095408 0.03699305 0.01586607 0.5528576 0.0007068834 -0.4764085 -0.02177571 -0.04110936 -0.02036376 4.313592 1.11209 0 2.130247 4.931455 7.749416 9.861686 15.75334 14.83984 13.84443 14.29056 16.72768 16.25859 14.742 14.72069 15.72046 23.74729 31.35584 29.22559 27.85212 34.9816 34.93401 30.91964 33.76792 54.87397 58.48869 67.39445 69.46416 63.04808 55.49123 56.76978 57.95833 48.58521 37.08661 38.26228 41.45751 39.8105 37.38641 36.52909 36.89279 31.82794 27.16505 21.03492 16.45395 27.96075 34.55392 34.63628 29.37631 29.38441 30.00898 31.61019 32.34378 33.08952 33.742 33.742 34.75002 36.742 36.06364 35.2598 36.742 36.742 36.742 36.742 36.742 36.59793 36.64462 36.61651 36.60846 36.742 36.742 36.36718 35.74861 35.742 35.742 35.742 35.7742 35.90193 35.99198 34.90369 34.742 34.742 33.94978 34.742 35.17132 35.01516 34.742 34.84406 34.47264 34.50822 34.55689 34.1387 34.5689 34.74614 35.93112 35.41235 35.55067 32.43576 30.06252 31.79465 26.40631 20.05587 26.7665 31.82354 32.05545 32.88882 34.50439 34.61898 34.18148 34.39425 34.26833 34.81635 34.68658 34.77202 35.75974 36.13058 36.47689 36.02961 33.87962 30.99956 16.738 16.738 16.738 16.738 16.738 16.738 16.738 16.738 26.46185 33.89848 36.27886 33.74643 29.56568 20.97841 23.75556 30.63429 30.77094 29.70514 27.07429 19.84328 23.2659 25.43608 24.61428 20.96364 23.63388 12.738 12.738 14.29457 23.86333 27.69343 27.78628 27.76136 26.09163 24.04921 26.67446 27.68238 20.75378 19.93756 24.67322 26.75069 27.69132 27.77662 26.88547 26.33202 25.48425 26.22095 13.55682 9.912952 16.91027 20.19195 27.90681 27.73889 27.73051 27.738 26.80185 25.53398 24.47171 24.46932 24.31466 18.5746 14.41188 19.63522 24.33126 22.79456 20.85642 21.27888 16.70365 9.108907 11.03336 16.79004 20.77079 17.76977 16.76085 12.56814 16.63114 17.00328 21.14866 20.58142 19.85664
0 0 0 0 0 0 0 0 0 0 0 0 0 0 0 0 0 0 0 0 0 0 0 0 0 0 0 0 0 0 0 0 0 0 0 0 0 0 0 0 0 0 0 0 0 0 0 0.1263592 0.7715486 0.007695939 0 0 0 0 0 0 0 0 0 -0.0001227931 -0.008921484 -0.00550692 0.0400738 -0.007602596 0 0.007921536 -0.08814275 0.1060352 0.009954753 1.164608 0.02283183 0 1.618483 4.441761 8.836974 10.21992 16.61967 17.22022 17.17922 16.77948 16.74611 17.5396 14.79294 14.59451 14.86093 24.87104 28.26732 28.56482 31.06371 38.21844 36.07745 30.13998 29.56982 51.2561 57.83584 62.53505 64.22144 61.27978 48.28137 46.84949 46.53387 42.87518 37.33548 38.80308 39.98631 35.34354 31.93734 31.29905 32.32969 29.08969 26.742 23.42922 15.742 26.26322 36.09118 34.83424 31.461 30.46247 31.14447 32.67364 32.65419 32.91427 33.66994 33.42889 34.78395 35.81682 34.03916 33.92891 35.9262 36.0663 36.03773 35.9868 35.81503 34.88009 35.05358 35.44274 34.7834 36.58963 36.71289 35.74041 34.69365 34.67297 35.67932 35.742 35.71796 35.85752 36.51369 35.10947 34.50057 34.38964 33.48381 33.9921 34.92974 34.7569 34.13508 34.31078 34.84051 34.80263 33.95184 33.87361 33.85651 34.0772 35.07854 34.2851 34.08332 31.69572 29.66129 29.79563 25.61263 18.28856 26.68416 30.78342 30.64913 30.75906 32.75854 34.16912 34.92429 33.90237 34.07017 33.78454 34.07584 34.46453 35.12613 35.98634 36.21946 36.4018 35.40437 29.47385 16.738 16.738 16.738 16.738 16.738 16.738 16.738 16.738 23.06383 32.06664 35.73848 35.66641 32.79711 24.04368 23.00719 29.62902 30.87058 29.93499 27.31025 22.55565 27.59013 28.71218 25.59911 22.68048 19.72353 12.738 12.738 12.81723 17.34454 27.22378 27.93824 25.37566 24.19046 21.08296 22.15251 24.96005 22.29176 16.81259 20.19108 25.57322 25.77104 25.80824 25.88342 26.63246 26.53937 24.73405 17.37265 10.72319 19.068 21.635 25.88592 25.77559 26.07763 26.73801 25.64627 23.36658 21.82561 22.8684 22.80163 18.32431 14.74551 21.31783 23.07327 21.39477 21.46389 23.32602 19.7317 12.00176 10.8287 16.65811 20.42159 18.06771 16.78542 14.05563 18.65605 20.59308 21.0365 18.35723 18.15215
0 0 0 0 0 0 0 0 0 0 0 0 0 0 0 0 0 0 0 0 0 0 0 0 0 0 0 0 0 0 0 0 0 0 0 0 0 0 0 0 0 0 0 0 0 0 0 0 0 0 0 0 0 0 0 0 0 0 0 0.0009611854 -0.01518821 -0.05748119 -0.0009332944 0 0 0 0.005755544 0.1678694 0.01707082 -0.0008111921 0 0 0 4.070457 10.88616 10.8752 15.73818 17.73992 19.39373 21.5675 18.14906 20.81928 16.91482 19.5561 17.61119 25.88166 22.94793 27.56142 31.60037 38.02787 32.12775 26.03231 24.26585 47.20052 54.82206 56.35244 61.19287 60.29303 44.51226 39.5915 35.67561 35.88498 35.19278 39.2888 41.5154 34.5934 30.35068 29.24324 27.89527 28.77112 26.869 22.51204 15.742 19.8109 32.9255 35.19276 33.85834 30.4876 31.05829 32.32394 32.13336 32.03688 31.82382 31.62339 32.02819 32.05798 32.99941 34.27166 34.74551 34.74614 34.74228 34.742 34.742 33.76469 33.81129 34.06433 33.75152 35.65801 35.742 35.5614 33.99908 33.79173 34.95935 35.742 34.98905 34.86327 34.80423 34.74461 33.74209 33.74028 32.30531 33.59328 33.742 33.742 33.742 33.742 33.742 34.12867 33.77156 33.742 33.742 33.742 34.25134 32.92097 31.77596 30.08401 27.9317 26.03185 24.63073 19.22436 27.96423 30.37514 31.32824 31.69989 32.72703 34.51725 34.98279 33.95755 33.90281 33.23646 33.29753 33.72308 35.82738 35.04278 34.49103 35.18198 33.86314 16.738 16.738 16.738 16.738 16.738 16.738 16.738 16.738 16.738 20.25064 28.99302 33.44021 35.72833 33.81143 26.71086 21.38809 27.073 29.53257 30.51576 29.45592 27.33655 29.45002 29.77965 26.93099 23.86257 14.32881 12.738 12.738 12.738 12.79447 21.39568 25.36105 24.48609 19.9208 13.89761 15.65095 20.56878 20.27022 16.7112 18.25015 23.31301 27.36841 28.07624 26.78641 25.31463 24.76464 25.18946 21.28392 13.24071 21.64353 23.64915 25.73853 25.77748 25.72433 25.71855 23.41432 22.76436 23.41847 21.42158 20.49116 19.4038 18.409 22.12475 19.82926 19.1355 20.93235 22.48559 22.74809 17.31837 10.6377 15.59584 18.73096 18.16674 16.71001 14.38131 20.38265 21.6675 20.05598 18.13123 16.8396
0 0 0 0 0 0 0 0 0 0 0 0 0 0 0 0 0 0 0 0 0 0 0 0 0 0 0 0 0 0 0 0 0 0 0 0 0 0 0 0 0 0 0 0 0 0 0 0 0 0 0 0 0 0 0 0 0 0 0 0.003744813 -0.0002543383 -0.1162099 -0.05112071 0 0 0 -0.07343035 0.2795466 -0.003633891 -0.006197372 0 0 0 10.18598 12.69234 9.869146 15.76949 16.66952 17.06166 19.64509 20.71929 22.76878 23.83284 29.21388 23.8553 26.24851 25.76377 27.83531 29.82046 33.93511 24.09503 21.5167 27.08224 47.84863 55.66309 55.88969 62.11538 56.80462 43.57449 40.42202 35.23875 32.42959 31.46951 38.5508 46.40123 36.44329 32.7599 29.52779 26.21752 30.72958 30.49525 22.72439 15.742 16.29295 30.08388 34.64051 34.58376 30.11036 30.53667 30.8876 31.742 32.26911 30.74175 30.71577 29.73531 26.89272 31.94166 35.58204 34.75213 34.75106 34.75867 34.79686 34.85051 34.91766 34.77945 34.78663 34.25214 35.56837 35.742 35.742 35.38499 35.51193 35.98518 35.59962 34.742 35.02472 35.06457 35.07408 34.74954 33.42327 30.09545 31.81054 34.67679 34.742 34.742 34.742 34.742 35.37355 34.81604 34.742 34.73346 33.78151 33.742 33.76463 32.75556 28.18039 24.37423 21.33204 21.62058 22.8158 30.3014 32.53315 33.44939 33.67635 34.49572 34.54088 34.03376 33.27979 33.9373 33.34844 33.44066 33.6621 34.17407 33.39766 33.52674 33.81824 33.54659 26.25297 16.738 16.738 16.738 16.738 16.738 16.738 16.738 16.738 16.90677 26.46387 29.78802 33.5348 32.13536 26.7065 19.7504 25.08074 28.31865 29.69046 30.65567 30.98311 29.12825 29.67284 27.17779 24.73999 18.10852 13.27966 12.738 12.738 12.738 12.738 12.738 12.738 12.738 12.738 12.738 19.30413 18.84749 18.27618 18.33791 21.26664 26.8185 27.91345 26.738 25.59722 24.68419 25.7361 24.08785 12.10156 16.08104 22.88098 24.37142 24.64242 24.34921 24.3088 23.3959 23.84681 24.49017 24.12138 21.17261 20.86847 20.07432 20.551 19.42732 20.81271 23.265 24.7571 24.64884 21.44466 11.0971 11.52831 14.09206 14.53084 13.0716 14.74114 19.15087 19.738 19.77785 19.21597 18.13895
0 0 0 0 0 0 0 0 0 0 0 0 0 0 0 0 0 0 0 0 0 0 0 0 0 0 0 0 0 0 0 0 0 0 0 0 0 0 0 0 0 0 0 0 0 0 0 0 0 0 0 0 0 0 0 0 0 0 0 0.005242448 0.01979377 -0.08556101 -0.1541187 0.1785825 0 -0.1872405 0.01105362 0.3113465 -0.03380636 -0.009459036 0 8.145392 10.17435 16.28702 13.11377 9.404175 13.61042 13.05205 15.9032 18.67939 22.9632 25.82259 30.02797 35.91167 31.75851 27.49541 27.64559 27.85299 32.10013 30.9673 24.77087 25.95816 31.47151 38.12478 51.25229 56.15376 61.06379 54.40671 46.22324 43.91728 43.35673 43.68602 41.14464 38.32687 45.95655 36.11464 33.3774 30.27064 29.93795 32.23639 34.07045 27.22465 15.71955 21.96016 28.2049 32.61764 32.91351 28.82866 29.24767 29.79499 30.70799 33.11219 31.89808 31.86701 28.65954 22.69564 31.76507 35.68506 35.70953 35.71933 35.70855 35.67509 34.68431 35.5516 34.49027 34.45428 34.40031 34.33715 34.23662 34.15126 34.9 35.11307 35.01006 34.1309 33.93232 33.85215 33.74137 33.73893 33.7366 32.70579 29.08816 31.74565 33.67111 33.63591 33.60547 33.57014 33.52686 34.46249 34.742 33.74396 33.742 33.742 32.55913 33.11112 31.87499 29.28856 25.32972 20.77669 21.89041 29.99595 31.64172 31.91717 32.7953 32.79074 32.7697 32.43606 32.02489 32.08079 33.97532 34.74827 34.58492 33.36319 32.03161 31.56301 34.01923 35.33517 33.90524 33.75094 29.37517 20.44109 16.738 16.738 16.738 16.738 16.738 16.738 16.738 23.39375 28.51453 30.9094 30.53916 28.10345 20.49998 22.62234 25.03971 26.46787 27.05326 30.40744 28.16295 29.89647 27.71926 26.01778 23.09942 20.26719 12.738 12.738 12.738 12.738 12.738 12.738 12.93961 12.80932 13.13029 18.78778 19.15938 20.30214 17.60336 18.94285 22.43668 23.51874 25.65758 26.72822 25.73616 25.738 24.72733 11.738 11.73676 19.04013 23.71936 23.738 23.738 23.738 23.738 25.06132 24.67665 24.55015 21.01203 21.02021 20.738 21.32788 21.00223 20.7359 22.75972 24.23108 24.21003 21.58898 12.60106 7.970156 6.892516 11.61365 12.54625 17.63291 18.96722 19.69299 19.66922 19.73745 17.82131
0 0 0 0 0 0 0 0 0 0 0 0 0 0 0 0 0 0 0 0 0 0 0 0 0 0 0 0 0 0 0 0 0 0 0 0 0 0 0 0 0 0 0 0 0 0 0 0 0 0 0 0 0 0 0 0 0 0 0 0.008761429 0.02090113 -0.01528935 -0.1301994 -0.1391335 0.3967372 2.035158 2.926064 2.366614 0.9134554 -0.0163835 6.396955 8.934538 9.610412 15.60272 14.23343 11.90954 13.97621 13.06957 17.00104 18.54597 23.25285 28.84932 33.15808 37.68315 33.34309 31.47291 32.93858 28.33629 32.78318 27.28146 25.61958 28.50271 31.55378 34.76775 48.25029 55.14222 58.6397 54.21106 49.49562 48.01743 47.51132 45.53676 42.93562 42.27039 44.15126 34.34118 32.47437 30.81674 30.93671 32.78919 32.64699 26.00069 16.62801 18.04913 24.77743 31.78967 30.78562 27.1366 28.47748 29.742 29.82434 33.70264 33.73216 34.68264 26.95242 22.30243 32.79363 34.67285 34.742 34.742 34.742 34.742 34.42042 34.62891 33.742 33.742 33.742 33.742 33.742 33.742 33.76978 33.76773 33.76802 33.18956 32.75797 32.742 32.742 32.742 32.742 32.74458 29.74765 32.869 32.79897 32.82473 32.853 32.88641 32.92822 33.742 33.8255 33.742 33.742 33.742 32.459 32.68258 31.742 31.46988 29.58098 25.94727 26.44836 31.72819 32.17192 33.61268 33.48612 31.54676 33.18869 32.65541 32.84941 33.13264 33.55008 33.94714 33.10094 32.42813 31.33296 30.87681 33.43121 35.91313 33.76374 32.79274 31.09565 25.16925 21.03669 16.738 16.738 16.738 16.738 16.738 16.738 25.09698 31.03108 30.52962 26.79964 25.63327 20.14692 22.94669 25.79575 25.738 23.98006 29.13881 29.47297 31.35192 28.28336 26.05362 25.67453 21.603 12.738 12.738 12.738 12.738 12.738 12.738 12.738 15.41423 15.9032 19.56838 21.79841 23.40844 18.90958 15.69801 14.14608 16.56919 24.57263 26.72257 26.118 25.738 24.3831 11.738 11.72168 16.0649 22.55939 23.37436 23.37881 23.55431 23.738 25.47734 24.45953 22.88996 20.53598 20.62864 21.67056 22.7355 22.40393 18.71055 20.631 21.87291 22.73722 22.42296 14.02677 7.370304 6.056153 8.312857 11.48387 18.94925 18.46308 18.47644 18.43426 19.11107 17.73869
0 0 0 0 0 0 0 0 0 0 0 0 0 0 0 0 0 0 0 0 0 0 0 0 0 0 0 0 0 0 0 0 0 0 0 0 0 0 0 0 0 0 0 0 0 0 0 0 0 0 0 0 0 0 0 0 0 0 0 0.04036351 0.04965382 0.04695262 -0.004687981 -0.2529168 1.220015 4.749612 6.7434 3.946974 4.95453 8.198977 14.4849 9.762049 9.702783 11.99393 13.79321 13.83914 15.31021 17.48462 18.50978 18.71754 20.99886 27.671 31.17528 35.66481 29.77806 34.96218 40.11597 30.57224 28.92477 22.18861 23.32564 28.20531 30.67972 38.01863 47.37661 52.46978 56.35382 54.26027 51.88795 50.9773 47.57327 41.9595 40.03223 43.62701 40.62786 33.33548 30.8371 27.65096 30.06486 33.5647 32.06075 19.57003 15.742 15.742 16.35045 32.57663 31.96706 28.23949 28.32187 29.10598 32.3833 33.80215 34.79916 34.07076 26.19246 25.03713 30.16192 33.85107 34.79738 34.7999 34.65697 34.6263 35.19534 35.44214 34.99874 34.5388 34.79692 33.84335 33.763 33.7651 33.76989 32.98789 33.0795 32.75714 33.70222 33.742 33.742 33.742 33.742 32.54807 30.40095 33.12267 33.54267 33.69637 33.79206 33.91402 33.743 33.742 33.742 33.742 33.742 33.742 33.15585 32.70449 31.742 31.36554 32.43007 31.65462 31.67854 31.67216 31.14889 32.76076 32.93679 29.7637 31.94679 32.61876 33.81102 34.14725 33.84279 34.07153 32.27694 31.72261 31.94699 32.1149 32.65306 32.76089 32.85676 32.15749 31.80785 26.20856 27.60111 16.738 16.738 16.738 16.738 16.738 17.87773 27.16526 32.61713 32.31357 27.63361 24.85319 19.28099 23.51616 27.63488 26.3128 24.19693 26.19527 29.94079 31.86676 29.11018 26.3341 26.46361 22.91737 12.738 12.738 12.738 12.738 12.738 12.738 12.738 12.738 13.63073 15.14555 18.69111 24.01661 23.93552 17.44109 13.34625 14.46144 25.24495 26.73754 26.7351 26.32778 20.14885 11.738 11.55898 20.67733 19.07974 20.74479 21.80285 23.13412 23.738 23.06989 23.738 22.738 21.57738 22.03513 23.61846 23.65315 21.82775 15.7935 17.94834 20.03862 21.86896 22.31094 14.38323 7.185702 8.092172 6.819755 10.98938 17.79201 17.75222 16.7259 15.83251 18.71098 17.4457
0 0 0 0 0 0 0 0 0 0 0 0 0 0 0 0 0 0 0 0 0 0 0 0 0 0 0 0 0 0 0 0 0 0 0 0 0 0 0 0 0 0 0 0 0 0 0 0 0 0 0 0 0 0 0 0 0 0 0 0.004409036 0.02939721 0.1119667 0.1566909 0.2946266 2.27375 8.592593 9.789804 6.597904 10.19 10.31638 14.79321 9.569546 13.1979 10.57269 12.6424 15.27774 15.39744 17.33441 17.45024 18.52602 20.41706 24.54425 28.41105 31.47366 27.40379 33.14082 34.64361 27.98971 24.91221 20.57969 24.14841 32.32845 32.58757 38.78422 48.57432 50.742 56.72253 54.87771 52.57155 51.43906 44.57492 37.39283 37.4801 41.66208 37.58712 34.64654 30.74765 21.8684 27.16289 33.61536 30.96199 19.01732 17.26423 23.43932 25.51731 31.59677 32.3222 27.147 26.72699 27.19588 33.05211 34.74085 35.50177 33.75446 27.81879 26.85483 27.90869 30.42443 33.81368 34.17004 33.24079 33.15543 34.63545 35.08476 34.56231 33.93831 34.70351 33.7649 32.8158 32.774 32.75209 31.75004 31.742 31.74299 32.6552 32.54507 32.51226 32.48882 32.43474 31.35388 28.94307 31.77647 31.75863 31.92033 32.0739 33.55236 33.742 33.742 33.742 33.73777 33.73153 33.73379 33.742 32.9786 31.90442 31.09651 31.78706 32.05488 32.14441 31.24346 30.40183 31.12182 31.75183 28.97888 31.54368 32.65677 33.73836 34.0806 34.37579 33.94109 32.62016 32.82903 32.94715 33.20012 33.62272 33.6615 33.738 33.11448 32.72662 30.54095 32.98804 19.10401 16.738 16.738 16.738 16.738 19.48638 26.61459 30.009 33.71049 30.78968 26.12689 18.12735 22.68681 29.72367 28.79586 26.60155 24.9888 28.57825 31.10011 30.55198 26.71054 25.16002 23.0541 12.80208 12.738 12.738 12.77316 16.05744 12.85515 12.738 12.738 12.738 12.738 15.80875 19.99518 24.51666 17.93869 14.2737 14.89655 24.13347 25.76308 25.34421 24.81017 12.68938 11.738 12.59713 22.541 20.8333 20.10831 22.63386 23.64693 24.14293 25.52185 23.48951 22.738 22.77094 22.90753 23.738 23.70938 20.27734 14.97489 19.33794 21.02565 17.828 16.09109 10.47139 5.40461 5.404168 7.898344 12.55808 15.77606 15.60862 16.71412 14.70816 17.97606 17.73605
0 0 0 0 0 0 0 0 0 0 0 0 0 0 0 0 0 0 0 0 0 0 0 0 0 0 0 0 0 0 0 0 0 0 0 0 0 0 0 0 0 0 0 0 0 0 0 0 0 0 0 0 0 0 0 0 0 0 0 -0.0002578562 -0.009542721 0.205523 0.3158464 1.038849 3.538163 9.400613 10.18614 9.652353 13.31179 10.753 13.62777 10.69121 15.31595 12.46102 12.4047 15.78369 14.59333 15.62966 15.45939 17.49311 19.56121 22.7028 25.1866 27.9659 26.61397 32.39124 29.92249 24.68214 22.10171 17.97935 21.30182 28.68956 34.79861 39.35878 48.56642 51.7312 54.99464 54.58694 51.92997 44.78325 37.43172 36.93659 37.01264 39.20652 36.73982 35.8063 29.45844 21.62902 28.97141 32.05404 30.02069 26.02487 26.31115 28.06253 30.04575 30.83397 31.32567 26.63559 24.80914 27.3509 33.53876 33.742 34.742 33.93895 30.59682 27.53338 27.64618 28.43447 32.61409 32.77095 32.742 32.742 32.742 32.75291 33.742 33.742 33.742 33.742 32.7698 32.742 32.22322 31.30357 31.77122 32.61607 31.89901 31.94985 31.98967 31.94416 31.00747 31.51785 30.13759 32.33667 32.38905 32.43423 32.46261 33.34083 33.742 33.742 32.742 32.742 32.742 33.05609 33.742 33.73963 33.73016 33.05125 33.06421 33.69992 33.6944 33.28175 32.36544 31.73532 32.74701 29.0728 30.99587 33.69102 33.67482 33.91525 33.9082 33.25854 31.84537 31.80501 33.30623 34.43102 34.59581 34.59484 33.42634 31.86334 30.79885 30.738 31.81231 30.49838 23.44072 16.75491 16.738 16.738 18.6202 25.07765 26.72116 28.98569 28.94451 27.30413 15.83583 21.56022 31.22995 30.69153 27.80967 27.70062 27.74669 29.76826 31.12733 26.0785 22.83623 20.65052 16.08323 12.738 12.738 12.738 19.83631 12.83374 12.738 12.738 12.738 12.738 14.42537 16.54876 20.94436 16.73376 12.97039 13.95998 19.67925 22.79605 21.07113 19.33728 11.738 11.738 15.65785 23.29194 23.22867 19.85669 22.10313 22.21679 24.13163 25.49601 21.6484 22.87144 23.71531 22.62808 22.54405 21.4497 20.13151 17.29617 18.32147 20.47372 18.6954 14.71655 7.639156 5.176926 5.344656 6.541273 7.112937 10.59545 11.85319 14.05007 16.73769 16.59925 17.40553
0 0 0 0 0 0 0 0 0 0 0 0 0 0 0 0 0 0 0 0 0 0 0 0 0 0 0 0 0 0 0 0 0 0 0 0 0 0 0 0 0 0 0 0 0 0 0 0 0 0 0 0 0 0 0 0 0 0 0 -0.0006979754 -0.0336456 0.2063193 0.583905 2.129987 4.526168 6.70828 7.644663 11.04929 13.73583 11.9679 11.20685 13.21262 13.6707 13.62899 13.63663 15.46248 14.96457 14.21001 13.42714 15.7384 17.70719 21.20242 22.26156 25.13305 24.95922 30.25778 25.5558 21.92212 19.86139 19.27486 20.1066 25.52521 30.41297 38.12083 51.44563 56.75111 53.25195 51.40389 50.62565 41.37435 35.56943 34.29227 36.0197 35.78407 36.25186 36.22463 31.6905 26.43596 32.79332 33.22863 31.88573 28.91794 29.02618 29.41183 29.79498 29.87012 32.1248 29.24356 25.72191 28.0873 32.73731 33.73708 35.05236 34.89928 31.6678 28.84448 27.65946 31.63103 32.76086 32.75839 32.75499 32.74379 32.7406 32.74059 32.76183 33.74386 33.74724 33.74995 33.58186 32.70102 31.94171 31.69764 32.4818 33.41122 32.7351 32.51101 32.46789 32.18836 29.68624 30.46963 31.5529 32.70649 32.11356 32.51161 32.52221 32.66817 32.62652 32.51669 31.75248 31.74179 31.742 32.06651 32.69421 32.25585 32.60833 33.10655 32.90816 32.79479 32.668 32.77419 32.40466 32.13729 32.32941 30.91487 29.47506 31.09739 31.03001 31.21196 31.8868 30.97127 30.73584 30.80889 32.30103 33.86094 32.41598 32.41027 31.94136 30.75195 31.71342 31.71969 31.68019 28.2359 25.63842 18.00243 17.35419 18.5624 24.64616 24.87692 25.89739 23.02981 26.03835 27.38112 16.91948 18.25715 27.20587 25.55993 25.70132 26.74661 27.8379 31.10688 30.92247 26.00902 22.77975 19.78619 15.99225 12.738 12.738 12.738 16.03939 12.86325 12.738 12.738 12.738 12.738 13.92163 17.4529 17.8824 14.90693 11.82185 11.42017 14.82605 19.7251 14.50253 12.50792 11.738 11.738 18.61549 23.43812 23.1746 20.16789 20.3142 19.91978 21.56448 21.70645 17.94707 20.88701 20.97273 22.11683 22.84777 22.12534 21.20912 19.20597 17.55463 18.82989 19.64922 14.64375 10.45744 10.84795 9.659566 5.304377 2.776233 7.643953 8.900645 11.26144 15.02769 14.04755 11.90629
0 0 0 0 0 0 0 0 0 0 0 0 0 0 0 0 0 0 0 0 0 0 0 0 0 0 0 0 0 0 0 0 0 0 0 0 0 0 0 0 0 0 0 0 0 0 0 0 0 0 0 0 0 0 0 0 0 0 0 0.001695021 -0.006541383 0.2855307 0.9903841 3.51046 5.149792 2.088742 2.05222 6.250005 14.23693 11.27638 12.27066 14.74531 12.742 12.742 13.16326 13.82757 15.70745 15.18007 12.742 14.20953 16.1911 19.76691 21.25427 22.73371 22.73766 24.35802 23.2794 20.62097 18.89773 24.55805 23.53547 27.20954 27.01298 39.86819 55.64471 61.1413 52.34994 46.65927 46.18794 38.87209 34.4854 33.16374 35.24538 34.75905 35.6912 36.1155 34.73787 32.39943 35.51584 35.0876 33.74886 32.3262 30.2774 29.0416 28.85511 29.78222 32.74013 28.68036 25.49169 30.07455 32.72614 33.72059 33.97946 33.92229 33.11366 31.75924 31.24866 32.76155 31.91174 31.76076 31.74688 31.742 31.46564 31.742 31.76624 32.742 32.66977 31.89654 31.742 31.742 31.31894 30.39692 30.84358 32.20132 32.09923 31.742 31.742 31.742 29.92021 27.98153 30.77152 31.77986 31.26665 30.77686 30.78209 30.90763 30.92492 30.92133 30.91993 31.65214 31.742 31.74385 31.73623 31.00888 30.81184 31.09788 31.83033 31.89522 31.92867 31.3391 32.03085 32.05785 32.06632 31.31772 27.16514 28.94227 30.0331 30.1342 30.52151 29.39843 29.75793 30.29126 31.95721 32.52171 30.8464 29.73201 29.11185 29.31505 31.27942 30.77808 30.74698 27.00477 24.53493 18.99302 21.05544 25.42579 28.63768 24.86894 24.4079 21.82412 23.45937 24.50973 16.94051 14.64199 24.57578 24.37774 26.38032 28.27234 27.70271 30.71912 31.35077 26.04063 23.76517 19.83562 16.9758 12.738 14.03288 13.78323 14.43075 12.738 12.738 12.738 12.738 12.738 17.2652 19.32184 20.32162 20.35457 16.35511 11.33415 13.79465 13.12784 11.738 11.738 11.738 11.47489 16.76536 20.84516 18.89808 19.47821 20.98513 18.6291 17.26524 17.00329 15.81268 16.78609 12.71717 23.44618 24.11904 23.82706 22.24117 19.84168 17.93785 17.41639 18.78122 16.07208 16.93475 17.79305 12.20839 4.539022 1.841903 4.45503 5.916471 6.873438 11.62303 10.86742 3.891209
0 0 0 0 0 0 0 0 0 0 0 0 0 0 0 0 0 0 0 0 0 0 0 0 0 0 0 0 0 0 0 0 0 0 0 0 0 0 0 0 0 0 0 0 0 0 0 0 0 0 0 0 0 0 0 0 0 0 0 0.005894546 2.746091 3.514872 3.941385 5.633485 6.301556 1.901119 2.502321 3.002133 8.941707 8.334042 11.64149 13.70809 13.36615 14.42328 14.05031 11.47463 14.51052 14.61997 14.34574 12.77096 16.87129 19.7421 22.34977 23.23154 19.99548 18.50352 24.68881 21.81546 20.09885 28.44593 28.88325 31.94291 38.60104 52.36381 58.62245 59.92632 51.65754 43.32477 37.39896 34.91029 27.6024 36.15439 36.96018 34.75999 34.76056 36.32385 36.78897 36.87037 36.742 36.73287 35.75054 35.34904 32.05242 29.70851 28.20736 31.18486 32.75359 28.38116 26.69285 31.55939 33.49684 33.73597 33.742 33.742 33.742 34.48502 34.22604 33.67021 32.80883 32.6986 32.71629 32.73627 32.12091 32.74195 32.77255 32.77874 32.23259 32.1424 33.01716 33.14919 32.11303 30.33521 30.50152 30.742 31.01391 32.46648 32.52242 32.47903 28.88303 27.902 31.61586 32.72165 32.73229 31.49592 31.8253 32.59336 32.73802 32.73129 32.7241 32.71651 32.70581 32.70707 32.38417 31.69202 31.71767 31.7207 32.58778 32.7357 32.742 32.68878 33.71678 33.70522 33.07401 30.18393 25.59076 28.8972 31.1462 30.99514 29.78526 28.99401 29.7089 31.16803 33.05369 33.61195 31.4526 27.91273 27.76261 27.66698 28.38867 30.72615 30.56692 27.36517 23.29592 18.32434 23.26376 28.5627 27.01634 23.89507 21.9922 23.99934 23.50051 21.88714 16.67315 12.72444 24.30867 24.24003 26.09537 28.84394 27.52857 29.69265 30.66507 27.42685 24.70237 21.35845 19.29153 14.8678 15.48433 17.06977 13.02423 12.738 12.738 12.738 12.738 12.738 14.68851 18.4919 22.65542 22.63488 17.43104 14.03562 11.41371 11.738 11.738 11.738 11.738 11.738 11.93027 15.95359 12.11841 12.14199 15.47671 17.70603 19.49046 19.72717 19.5949 17.85295 16.73535 20.61465 20.64326 20.59755 19.86121 18.9046 16.91039 16.67214 18.34298 19.26088 20.21925 19.54741 8.252408 4.655834 1.852479 0.2018298 1.372628 2.785075 7.305663 7.438742 0.0527118
0 0 0 0 0 0 0 0 0 0 0 0 0 0 0 0 0 0 0 0 0 0 0 0 0 0 0 0 0 0 0 0 0 0 0 0 0 0 0 0 0 0 0 0 0 0 0 0 0 0 0 0 0 0 0 0 0 0.08244256 1.7227 0.6609067 3.56766 3.72824 5.29341 5.673933 6.225404 2.894408 3.088552 3.05065 2.737264 6.14306 10.43713 11.23977 13.15283 15.29769 15.02991 11.1964 12.20013 16.03148 15.57146 15.09307 16.53144 19.63359 23.33219 23.06443 21.41014 20.06011 23.69762 24.79988 28.37587 29.42874 32.09561 37.73673 44.50628 57.61691 58.27694 55.00059 50.15673 39.94979 34.03841 34.81662 33.16638 38.19394 36.77335 36.00612 35.9839 37.88521 39.17199 37.88424 36.742 36.71893 35.22046 34.742 34.13954 31.85835 28.47255 32.14217 31.97437 27.44676 29.69198 32.26265 34.81921 33.88097 33.86183 34.59524 34.742 34.78241 34.78211 34.74379 34.03928 33.742 33.64831 33.4505 33.29099 33.742 33.72056 33.14626 32.57818 32.51374 33.54877 34.0428 33.05544 31.54491 30.84798 30.742 30.92385 31.96907 31.94669 31.60086 27.7016 28.85529 30.96289 32.74248 33.742 33.33871 32.742 32.742 32.742 32.742 32.742 32.63266 31.85696 31.53328 30.41493 31.14911 31.08573 29.75666 31.408 32.66617 33.74281 33.742 33.7413 33.74038 32.67506 30.47243 25.64383 30.9822 31.80845 30.27097 29.26936 28.19012 28.70427 30.27402 31.63594 31.46231 29.34434 24.40892 23.28847 25.39446 29.06431 30.77415 26.40146 22.40545 21.25948 16.26275 20.11666 21.62632 22.32571 23.29527 20.44755 26.06269 26.10891 21.39952 17.24033 14.46951 24.36633 22.78293 24.75002 26.29588 27.04616 27.77553 28.738 28.65715 25.54178 22.48655 21.0777 18.45267 16.02696 17.13431 15.45658 12.8741 12.738 12.738 12.738 12.738 12.738 12.78073 18.53505 19.3458 17.24831 17.03675 12.3785 11.738 11.738 11.738 11.738 11.738 11.738 11.738 11.738 11.738 12.02141 17.40275 19.48195 18.75115 18.74863 18.56083 19.21968 19.738 19.83139 20.69136 20.52444 19.73101 16.91912 14.18182 12.45802 17.84866 18.36611 18.15578 14.13905 5.381329 3.147517 1.018091 0.008526489 2.197897 0.01891854 0.3144133 0
0 0 0 0 0 0 0 0 0 0 0 0 0 0 0 0 0 0 0 0 0 0 0 0 0 0 0 0 0 0 0 0 0 0 0 0 0 0 0 0 0 0 0 0 0 0 0 0 0 0 0 0 0 0 0 0 1.4948 6.693441 4.127416 0.8698425 1.825425 2.050618 3.611981 4.409185 4.240875 4.518434 3.494195 3.009308 2.522868 7.111415 8.742 9.740789 11.73388 13.94007 14.25505 12.0133 10.17782 17.27976 15.74442 18.91367 16.42149 19.2368 23.73933 22.49349 22.62092 23.38121 22.2584 24.30994 31.18332 32.91293 35.98302 40.76521 47.7754 58.88699 55.42297 47.62432 44.81925 36.41333 33.59227 34.50477 34.73752 36.97523 36.72058 37.16119 38.31844 39.70715 39.14654 37.90406 36.6846 35.88715 34.76794 34.54486 33.06596 30.86654 27.51112 30.8663 29.88464 28.76163 31.24444 32.71834 33.31567 32.742 32.7787 33.742 33.742 33.742 33.742 33.742 33.55243 32.742 32.18026 32.69749 32.742 32.73487 32.742 32.70535 31.93825 31.742 32.74289 32.742 32.5132 31.71854 31.742 31.36059 30.742 30.742 30.742 30.1743 26.98328 29.25697 30.74539 32.72931 33.2715 33.22941 32.81735 32.88139 32.93076 32.98232 33.00613 32.41593 30.99252 29.87336 30.3779 31.27471 31.41644 29.76974 31.59843 32.9324 32.74269 32.6805 32.69595 33.70485 32.65769 30.96075 26.23509 29.20813 32.94298 30.701 29.59421 27.2168 26.16686 28.64978 29.18413 28.9727 25.56935 21.49501 23.44121 25.41084 27.37234 29.738 27.65966 20.56112 17.23205 15.79507 19.11407 20.61948 21.72865 22.73711 22.16849 25.70919 23.65222 21.07607 16.60512 15.60069 21.90211 24.76977 27.26987 28.24463 28.21664 27.738 29.34091 27.76279 26.62285 24.49136 23.55148 21.05389 15.41462 13.55119 15.70616 13.61761 13.59306 12.738 12.738 12.82342 12.738 12.738 12.539 15.32306 18.75406 19.51794 13.45907 11.72415 11.738 11.738 11.738 11.67504 11.738 11.71835 11.65621 12.22707 14.42992 18.8201 18.67013 16.14931 16.14156 18.74295 18.94937 19.10832 19.74899 19.83295 19.80512 20.06299 18.88121 14.86293 13.14061 16.37913 18.60234 17.72184 16.67152 8.373705 7.066693 1.670948 0.3529653 0.687768 0 0 0
0 0 0 0 0 0 0 0 0 0 0 0 0 0 0 0 0 0 0 0 0 0 0 0 0 0 0 0 0 0 0 0 0 0 0 0 0 0 0 0 0 0 0 0 0 0 0 0.03557179 1.115639 1.719056 2.505921 1.984577 0.4831701 0 0.6253099 7.725674 8.686337 6.082686 2.169509 0.866087 2.271939 2.537291 3.903967 5.269383 5.100082 4.850255 3.585484 3.173708 5.649891 9.475488 10.23404 10.69341 11.73926 11.80969 12.62709 11.51331 10.10597 14.3273 15.94119 16.88278 16.69746 20.07002 22.61055 21.65202 21.22128 23.77615 22.54805 20.33295 25.1635 37.14568 41.41562 40.08482 49.01467 57.08224 50.60231 40.21434 39.26648 33.77317 33.60817 34.12877 35.41087 36.13603 37.0046 37.85585 40.00402 40.72659 39.42468 38.60017 37.73212 36.71909 35.61526 34.80727 32.65147 30.76147 28.06574 28.33754 25.98506 25.06795 29.17319 32.76339 33.91903 33.56071 32.8646 33.5332 32.9021 33.742 32.88707 32.81317 33.33636 32.98287 32.15712 32.72543 32.57393 31.742 31.74364 33.06704 33.01497 32.59959 33.31439 33.33859 32.16986 30.19375 31.86996 31.68689 31.78031 31.79127 31.73651 30.30501 27.60021 29.55424 31.68644 32.67516 32.70457 32.67271 32.60325 33.04654 33.46021 33.38003 33.31091 32.44551 29.78823 29.21205 29.89089 29.91889 30.88846 29.42922 30.60041 32.62885 30.8868 30.79572 30.93812 32.75116 31.742 30.8793 25.76602 28.11028 32.13876 30.59981 28.64792 24.89566 23.97486 26.68308 28.31157 27.46367 25.34835 23.36665 26.52965 27.41492 26.54423 29.51999 28.80914 20.62737 15.52649 15.80066 18.42784 23.05809 21.8631 20.73178 22.72848 23.6857 25.58123 21.94857 17.64798 16.1004 20.29427 26.3698 27.55078 28.56886 28.24724 27.738 29.738 28.91773 26.82356 26.06899 25.08128 21.68835 12.90216 13.41708 16.29796 14.45601 12.73954 12.96715 12.63008 18.2988 10.63032 12.62896 10.66852 21.21243 22.7219 22.42736 17.56768 9.204244 11.60219 11.47989 12.34436 15.86224 13.10371 11.00672 14.90316 17.59546 18.27661 18.82258 18.94814 14.96009 15.77236 17.72775 18.69194 18.82732 19.738 19.76649 20.1928 20.74431 20.35606 15.60307 17.00672 16.35113 19.76735 18.29801 17.18768 11.72955 12.21854 2.22322 0.5054961 0 0 0.006539694 0
0 0 0 0 0 0 0 0 0 0 0 0 0 0 0 0 0 0 0 0 0 0 0 0 0 0 0 0 0 0 0 0 0 0 0 0 0 0 0 0 0 0 0 0 0 0 0 0.9361504 2.648512 2.73528 3.619622 2.652328 0.04890064 0 0.5154828 7.74646 8.875222 6.516571 2.689158 1.027362 1.504439 3.003029 3.623991 5.167923 5.80865 3.750277 3.929689 6.552423 8.62691 11.30023 13.1094 12.19414 10.91681 12.40217 13.18902 12.53005 12.70491 14.62972 15.78269 15.72876 16.58689 20.52096 23.33723 20.20056 21.96686 25.36864 24.69067 21.0438 21.85302 32.85941 37.70026 36.30444 47.85598 54.06429 45.04234 38.04273 39.17115 33.78859 34.93085 34.99792 39.36543 38.37339 36.86713 37.94515 40.17095 40.81438 39.81876 38.81812 38.79611 37.94506 37.57246 35.64045 34.03068 33.5645 29.55176 26.52302 22.40596 21.29727 26.5203 31.45212 33.68829 33.34478 32.53362 32.71637 33.59085 32.3682 31.41761 31.29976 32.2809 32.19151 31.68638 32.742 32.65582 31.85882 31.9015 31.94396 31.84945 31.59584 32.60322 32.6452 31.17747 29.14138 30.75525 31.74232 31.742 31.71509 30.74105 28.92701 27.98429 30.05693 30.59216 30.45211 30.40078 30.3172 30.22014 31.17442 31.05855 31.0069 30.95361 30.97908 27.9144 29.08197 27.5198 27.37943 27.38696 26.22608 29.94007 30.61395 30.70273 30.742 30.68063 30.75996 31.742 30.242 25.06275 29.04415 31.08483 30.20379 26.92106 22.55808 23.17128 24.88903 26.68312 27.02273 27.98836 28.60523 29.08256 28.45742 27.3163 29.51291 28.25655 23.22252 18.86679 16.40655 18.02523 24.00521 21.60155 20.60865 21.36453 23.39974 28.99902 23.36871 18.77826 15.74174 19.35057 26.31461 28.34206 28.53851 28.27274 28.44881 29.10364 28.46242 27.56432 26.738 25.75738 22.70881 15.1227 14.71929 14.00307 15.31157 13.42452 12.98691 12.738 20.43411 19.43658 19.04524 19.26022 23.01823 23.88495 21.73178 18.87566 16.28445 13.56471 11.69576 13.82283 15.93242 16.46368 16.25988 18.72404 19.73859 19.76199 20.62909 20.54042 19.02769 17.24439 15.39872 17.39354 18.9268 20.66205 20.95765 22.10129 21.7391 19.18903 14.49488 15.03293 18.12571 21.51064 19.6797 16.48215 11.64746 12.86425 0.9813614 0.004734059 0 0 1.223066 0
0 0 0 0 0 0 0 0 0 0 0 0 0 0 0 0 0 0 0 0 0 0 0 0 0 0 0 0 0 0 0 0 0 0 0 0 0 0 0 0 0 0 0 0 0 0 0.1439966 2.852036 3.893537 3.191694 4.215539 1.871359 0 0 0.4074838 5.711957 5.687328 5.514262 2.911281 1.782423 1.174442 2.964936 2.845062 3.444919 5.008313 6.291369 6.921889 8.853777 10.49078 12.38651 13.23676 12.09388 12.29017 15.29397 15.60351 14.69099 14.88268 15.84034 15.96131 15.82113 15.62816 20.34928 23.37085 19.89827 20.72449 20.58338 21.58845 22.89921 23.74617 31.42175 35.75743 41.89151 53.43462 55.08921 43.05043 40.42355 37.41225 33.41906 33.28561 35.3635 40.70314 38.10758 37.43111 37.95883 39.81934 39.79587 38.34774 37.75709 39.07638 38.56378 36.8306 36.7011 36.98279 33.78954 30.43382 26.57366 20.5985 20.65471 25.61571 29.86438 31.742 31.742 30.52637 31.82956 34.7301 31.742 31.12097 31.11986 31.64829 31.742 31.22457 32.82286 32.91846 32.742 32.742 32.50734 31.45155 31.98881 32.66565 33.01295 31.85019 27.68145 29.81706 32.84715 31.742 32.01771 30.80694 27.36036 29.54742 32.12148 31.18955 30.10549 30.14641 30.21992 30.42259 32.14639 31.6976 31.32336 30.40594 28.43623 27.84381 27.20204 27.72563 27.72491 28.34269 24.90509 30.79244 31.89239 31.90566 31.73844 29.8288 29.84939 32.65368 29.87967 24.34898 31.3846 32.56977 29.65286 25.2365 22.11194 23.08564 24.34232 25.75666 25.98285 26.95432 27.31321 26.62815 24.01861 25.80538 29.48831 30.12452 28.01307 24.64844 16.97682 15.91289 19.45404 19.80213 21.98769 19.6963 23.90674 29.6485 25.10626 20.25829 15.0172 17.52397 23.95342 28.18332 28.3845 28.91001 29.14862 28.38358 26.92816 27.738 27.05857 26.738 24.99024 19.83867 13.68405 13.71278 16.85449 16.69093 12.24056 12.738 19.71812 24.74937 24.51795 24.54796 23.84517 24.21339 22.38616 22.43481 22.08076 19.04401 15.51545 14.76162 13.85545 15.41625 16.25867 17.7918 18.87238 19.72622 19.64989 19.62905 19.70715 19.10936 16.24988 14.97247 17.4255 19.51516 21.43928 22.47828 20.99652 19.34523 15.12615 12.95027 17.84781 18.35907 16.77642 15.59861 11.57442 6.477944 0.03799934 0 0 0 0 0
0 0 0 0 0 0 0 0 0 0 0 0 0 0 0 0 0 0 0 0 0 0 0 0 0 0 0 0 0 0 0 0 0 0 0 0 0 0 0 0.2858474 0 0 0.2097443 0.7207311 2.310265 2.29466 5.585883 6.04856 6.997632 6.052434 6.504539 0 0 0.01767811 6.770891 5.333831 4.212822 3.160576 2.773779 2.014804 2.61754 2.993291 3.029377 2.560446 3.686736 6.95224 6.795417 8.205913 11.54966 11.79673 11.16297 11.74575 14.56038 17.79539 16.62744 16.4717 16.61814 16.7623 16.95137 15.58971 14.43688 19.14161 22.19237 19.85649 18.90622 17.48588 19.82497 25.90999 28.025 34.08175 40.43839 48.65546 55.04071 52.90225 41.5913 40.95868 37.51586 35.0368 35.92279 39.50424 40.59922 38.59219 38.58412 38.69049 39.29147 38.86552 38.7133 38.74365 37.1299 36.78248 38.45088 38.02327 36.742 35.95604 31.94194 26.82857 22.23332 23.81026 24.90596 29.36281 31.88145 31.29347 28.80398 28.45464 33.55525 32.13607 32.74389 32.75156 32.76344 32.7311 31.76465 32.62083 33.17688 33.742 32.94415 33.27624 32.64955 33.41062 33.09773 33.68998 32.66879 26.43089 30.61901 34.90558 31.42074 33.76345 31.56808 26.7018 31.82401 33.68032 33.07589 31.84516 31.742 31.742 31.742 32.53733 31.94386 31.05617 29.66236 27.98705 27.80493 25.66015 27.29128 26.49781 29.16334 27.32212 32.62683 32.742 33.31324 30.38467 30.18097 28.69855 31.54677 29.54483 24.13758 30.84693 31.62587 29.85779 24.03293 22.64338 25.17644 25.40625 24.21057 24.53011 24.4704 23.18793 22.40992 21.5806 23.82173 27.63479 26.372 23.21812 21.501 14.39111 14.21329 16.69194 20.195 19.74031 19.35663 24.86485 27.9208 26.91126 24.94307 16.20057 13.79409 17.94643 24.55775 25.3848 26.60127 29.27469 27.70874 25.24803 26.97476 28.12066 26.738 26.52562 24.68776 12.43181 18.94821 20.66472 20.60631 13.78038 12.738 15.8016 23.90429 24.27827 24.738 24.738 24.29642 22.39651 23.70686 24.14948 22.53959 18.66782 14.73937 11.79781 12.30905 13.75084 15.74039 17.76137 18.96502 18.26099 18.20904 18.65408 19.076 15.98219 12.95973 16.44298 19.38593 20.81751 21.34679 19.88486 18.69672 15.93923 12.62813 17.42311 17.05459 14.86262 11.53531 10.81769 4.999459 0.01308275 0 0 0.05791325 0 0
0 0 0 0 0 0 0 0 0 0 0 0 0 0 0 0 0 0 0 0 0 0 0 0 0 0 0 0 0 0 0 0 0 0 0 0 0 0 0 5.248182 6.742 6.600514 3.497923 2.044225 3.163888 4.802729 5.211907 6.521723 6.871295 7.871309 7.877074 3.890368 0.06597034 3.395405 5.806131 3.921988 1.844466 1.649958 1.960622 3.44682 4.538703 4.802763 3.391608 3.095433 3.633894 5.846482 7.870944 11.68536 11.81836 9.634957 9.209671 10.68386 14.37249 16.4864 14.97801 18.02864 17.89433 18.35206 18.67208 13.9274 12.18502 16.61362 18.022 19.88675 19.43611 20.34544 24.42851 28.76049 31.22881 39.75164 48.26252 50.29702 49.75716 47.10836 41.41951 39.84313 38.68584 36.93161 38.47752 43.19735 39.30391 38.74517 38.41818 38.20422 37.84515 38.51934 39.53748 38.81533 37.46256 37.40697 37.75937 37.70433 37.1394 36.70749 32.64062 26.82768 22.87213 22.90257 24.29873 28.89551 31.09025 29.97934 28.82925 30.71875 32.18167 29.63447 32.77679 33.24622 32.73019 33.19201 31.742 31.14493 32.09396 32.742 32.13116 32.48491 32.35667 32.32055 32.20044 31.13049 29.77515 25.81923 30.5636 34.56252 31.72528 33.742 29.31943 28.5976 33.19559 34.82734 33.29987 32.54519 31.74167 31.76531 31.66008 31.82722 30.73466 29.95994 29.20015 28.742 28.35158 26.03856 26.84261 25.6882 29.05271 28.68793 32.48269 33.07309 32.81359 27.88391 28.0797 26.19657 29.29797 28.18913 23.78609 29.48802 28.75315 29.47301 24.2546 24.73883 26.3379 25.40605 23.46821 23.34158 24.62294 22.14475 20.84988 20.73894 23.0883 24.75095 22.71529 19.9713 18.23016 12.88338 12.26449 13.97629 20.52795 19.03695 16.29839 23.04694 26.52168 26.15882 24.51265 18.76659 11.88808 17.42226 23.5152 25.71658 26.73119 26.51047 24.91749 20.90513 21.20011 25.23987 25.62743 24.55532 23.56505 19.91851 19.71612 22.22298 22.14051 19.92534 12.60625 12.74665 23.22157 23.41621 23.37325 23.26406 23.42386 23.34422 20.76566 23.07557 23.23832 20.83413 15.76693 11.58222 11.0149 13.34713 14.72509 17.63307 17.59171 16.62472 17.64072 16.83816 17.67174 15.82857 11.69722 15.19875 19.15852 19.26388 19.39164 18.09694 15.87879 15.96948 12.4429 15.06346 16.24452 13.37475 9.493471 10.70164 2.962215 0 0 0 1.738 0 0
0 0 0 0 0 0 0 0 0 0 0 0 0 0 0 0 0 0 0 0 0 0 0 0 0 0 0 0 0 0 0 0 0 0 0 0 0 0 0 1.702344 6.742 4.485654 5.43347 5.229899 4.856628 4.742 4.747755 5.849376 6.830567 7.728038 7.092917 4.030155 2.742 3.684687 4.44963 3.684225 3.198461 2.701833 2.840289 4.610515 4.876455 5.172379 6.397067 6.268922 6.374278 5.68055 8.43068 13.76439 11.99938 9.45556 9.007382 11.26841 14.9115 14.89568 15.11322 19.86393 18.71792 18.07628 16.90077 13.95895 14.41459 18.91839 21.15909 22.01162 21.58196 21.77525 28.28627 32.63241 37.36105 38.68008 39.85185 46.94607 42.1833 43.27726 46.3161 41.77088 40.73752 37.17109 40.03936 40.55065 36.95494 36.90769 36.78399 36.35509 36.75051 37.75264 38.742 38.742 37.7972 37.742 35.96964 36.9045 37.7017 35.94749 32.17308 27.33775 23.39443 21.34413 25.37154 29.16664 29.742 29.23112 30.19667 33.33815 32.45287 29.59308 32.37422 33.16281 31.89219 32.3073 31.742 30.84003 31.37033 32.79434 32.26063 31.7971 31.79736 31.80118 31.81194 32.14492 29.74309 25.99268 27.02633 29.65571 32.37025 34.25816 25.62198 28.18346 33.21075 31.3789 27.96452 27.63911 31.12942 32.60513 29.01364 32.93825 32.08457 31.80843 29.79562 28.81239 28.03119 26.97811 28.30176 29.18482 30.97872 26.88507 28.43641 33.57464 30.19797 14.26233 18.85359 22.7019 28.04737 25.91359 23.14251 27.53962 27.25956 29.65255 26.35796 26.45007 26.06669 24.80429 23.93111 24.85877 26.7886 24.90668 22.39568 21.48404 23.03216 23.21145 20.86245 22.78729 19.17157 14.34951 13.55097 15.10346 18.08214 16.68194 14.0822 21.74291 24.76277 23.846 22.34956 19.03259 10.77912 16.71093 22.39773 25.73922 25.75806 24.37195 22.75032 18.8513 16.83489 18.0969 17.60078 18.93959 19.85582 23.36059 21.92282 21.23133 20.37774 22.11069 13.33823 18.45433 23.05054 21.89111 22.5189 21.1685 22.45169 22.84203 19.25394 21.44606 21.42834 22.76796 20.93592 16.61697 13.9114 9.5244 12.3815 16.30059 14.82041 15.88992 16.80775 16.11853 16.9535 16.99328 13.11008 11.75598 18.06282 17.7852 17.71696 16.00177 12.73069 13.90843 12.93807 10.80935 14.65484 12.05118 9.522755 10.94094 0.0130994 0 0 2.304416 3.192845 0 0
0 0 0 0 0 0 0 0 0 0 0 0 0 0 0 0 0 0 0 0 0 0 0 0 0 0 0 0 0 0 0 0 0 0 0 0 0 0 0 0 1.574833 4.50268 5.578047 5.428477 4.410317 4.179178 4.117993 4.613648 6.462742 6.663495 4.885069 2.958771 2.835669 3.742 4.05957 4.129337 5.25894 4.947308 4.414718 5.574522 5.879965 6.431603 9.254249 10.30333 10.22252 8.097122 9.48213 12.75125 11.71403 10.74158 11.19547 12.81336 14.80715 13.742 16.03837 19.8107 18.77041 17.81419 17.76266 15.34113 17.02998 20.32583 22.95552 23.17695 27.04402 25.16745 28.38507 33.22196 36.28504 35.79935 37.66395 42.30375 40.09702 43.35681 44.60338 40.32358 38.92513 38.15184 39.45694 40.58583 36.66573 36.28281 36.62069 37.7104 37.77954 37.80383 38.6698 38.75242 38.83571 37.51237 35.742 35.64244 37.74451 35.6698 32.85242 27.93517 23.66748 22.00938 27.13692 31.33876 29.742 29.73856 31.20017 32.71441 33.94281 31.81542 32.72154 32.72978 31.34857 31.25631 31.6786 31.62174 30.74254 32.60165 31.62326 31.58149 31.22965 29.64963 30.56579 32.4643 31.68491 27.93834 25.43183 26.79004 31.37622 32.59777 22.36235 26.56758 30.8872 23.52095 13.30397 15.55881 32.35624 30.12279 31.86301 33.74273 32.03641 33.82008 31.98687 29.76044 29.75961 31.22944 31.57079 30.83921 26.28085 25.7722 27.59395 20.73001 14.31336 10.742 15.04525 20.38272 23.71011 20.31815 21.57044 25.71903 29.60937 28.43402 24.83373 26.10775 26.04191 25.97203 27.59154 26.76954 26.53361 25.94421 24.71739 23.42202 23.07669 23.45669 21.28933 25.28946 23.39663 16.99361 19.01075 17.67405 13.27569 13.55673 16.08984 22.17451 22.7227 21.20113 20.48182 17.22666 12.36758 15.68995 19.8861 25.03192 24.95677 24.45084 21.98322 16.84054 14.67497 12.7868 11.95345 15.61202 17.74801 23.71509 22.26232 21.97889 18.59366 20.46973 14.36289 17.23972 23.50861 21.79588 22.48403 20.8555 22.48981 22.84462 20.37316 19.77778 20.67087 21.81978 21.56919 19.98102 18.61127 13.98201 8.991853 14.75962 14.82436 17.0361 18.84051 17.45925 16.91775 16.49191 12.65751 9.411863 14.73297 17.82236 18.11792 16.66049 15.30021 14.99793 12.72237 10.70555 14.76762 8.948871 9.453797 5.12582 0.01170015 0 0 7.726965 3.65195 3.466993 0
0 0 0 0 0 0 0 0 0 0 0 0 0 0 0 0 0 0 0 0 0 0 0 0 0 0 0 0 0 0 0 0 0 0 0 0 0 0 0 0 0.8570954 4.56154 4.800483 3.395804 2.133115 1.517236 1.436053 3.523589 4.0514 3.699728 2.908088 1.743298 2.508846 4.585534 5.989415 6.684377 5.513912 4.742 4.742 4.744137 4.895316 6.331907 10.17613 13.78287 13.43637 12.06822 10.37778 8.502 9.221665 10.94728 13.86934 13.02415 12.45417 13.65751 15.55147 17.20027 17.742 18.24556 19.60105 17.55649 18.22249 20.19045 21.44043 22.23279 32.50458 28.70809 27.56619 32.24389 33.48252 34.14554 37.88924 37.21378 39.01939 42.9759 40.56312 36.64681 36.57281 37.92778 38.02842 38.37045 35.39514 35.93594 35.37128 36.13477 37.46436 37.30724 37.2769 37.74752 38.31722 36.75196 35.04573 34.4509 35.86685 34.78669 33.07148 28.90198 22.25159 21.57997 29.77212 33.33433 31.12199 30.77808 30.742 31.32461 32.8375 31.92518 32.38995 31.85124 32.85442 31.742 30.99895 30.80787 30.74359 30.77705 29.22066 28.88443 28.74065 28.742 28.742 30.11479 30.74163 30.2442 27.2922 26.02433 28.17214 28.14184 21.45569 26.11089 26.8503 12.742 12.742 15.23926 31.47813 28.25758 33.75889 33.742 31.97338 33.742 33.03919 30.99241 27.7219 31.6551 32.44346 32.95561 22.68657 28.34423 24.25667 10.742 10.742 10.742 17.55094 23.73691 23.0096 19.83061 16.85102 20.54215 22.4259 25.55725 20.8202 24.82324 26.90667 28.28191 29.45082 28.61484 26.3758 24.13791 23.02505 22.74264 23.76436 25.60897 25.75038 27.49473 24.64822 17.05848 16.85686 12.98393 13.04883 18.03972 18.82955 24.58018 23.32095 18.46574 17.63068 19.52306 15.19442 15.58601 17.71505 22.07576 24.53506 24.87765 21.59039 15.70454 15.27234 11.9014 13.9108 15.96964 18.7803 22.31531 19.3738 22.34206 18.78718 19.17262 14.56109 15.40902 21.90341 22.1226 22.49198 18.12889 21.48072 22.16744 21.63769 20.738 21.32053 20.74314 20.56768 21.10157 20.02519 16.92226 10.1085 10.93918 12.81327 15.65838 17.39411 16.94698 17.46183 15.95833 12.86448 11.99768 9.774032 15.40292 16.42847 15.71674 16.50886 13.48781 13.73775 10.33713 12.858 9.297948 6.620918 0 0 0 0 7.340596 4.820836 2.985952 0
0 0 0 0 0 0 0 0 0 0 0 0 0 0 0 0 0 0 0 0 0 0 0 0 0 0 0 0 0 0 0 0 0 0 0 0 0 0 0 0 3.166018 5.59733 5.645088 3.995405 2.031456 0 0.7246769 3.735346 3.778801 2.892162 2.729411 1.846345 2.538495 5.140895 7.544584 8.260468 6.528507 6.001638 5.876685 6.636837 7.586081 7.780564 10.09393 12.88499 11.57184 11.78855 9.569567 7.528907 9.086089 10.95302 11.35724 9.904975 10.21286 12.28397 13.1475 16.2346 17.9803 20.70618 22.78154 20.9094 18.04316 21.96193 17.62866 19.78597 32.72351 30.68341 28.75333 32.50172 32.06636 34.6443 35.7103 31.88869 38.74614 40.8064 36.93994 32.22885 34.45622 36.72174 36.42435 35.58373 33.742 34.22697 33.742 34.04002 35.742 36.71736 37.2991 37.05338 36.69724 35.75809 34.66285 34.04884 35.06099 34.89631 32.68238 29.47322 22.87939 21.74884 29.73073 32.14862 30.32582 31.80361 31.82814 31.94069 32.6464 32.41344 32.7995 32.80447 32.81285 32.18259 31.83313 31.83505 31.27704 29.7898 29.58952 29.35798 28.74077 28.742 26.74274 27.51342 30.76623 30.70419 29.48596 24.62072 26.04757 23.49225 23.3226 28.35021 24.51896 18.0158 12.77647 19.88157 27.99272 29.92424 33.73124 33.742 33.47235 33.6652 31.97188 30.46388 22.37837 30.13788 31.54993 33.1474 21.27911 29.48549 18.83442 10.742 10.742 10.742 25.3882 28.08481 23.47182 17.31136 12.26393 14.61522 16.37819 20.78594 19.55388 24.62211 27.26875 28.07526 27.49494 27.58613 27.40079 25.60078 23.59969 21.89125 24.03368 25.76513 25.69638 23.28826 20.31915 19.08854 14.98324 13.48604 16.7599 19.16433 23.08345 24.61152 25.2629 19.46289 17.41103 23.13009 19.94997 15.62553 16.29817 19.49149 22.09882 23.05323 17.98238 18.79321 22.37258 16.32803 16.5555 16.15703 15.78238 19.49919 19.62708 20.54367 20.85433 20.9275 15.82512 12.76964 19.06303 20.71853 21.52305 10.06366 18.62547 19.99527 20.738 20.75152 22.79278 20.21812 19.738 20.00396 18.17408 15.73697 12.03597 7.697252 10.06315 14.00519 14.74419 15.738 17.66438 16.7145 14.05981 14.89382 9.195013 12.61425 13.75556 14.55255 14.45545 10.64572 11.57761 9.555025 12.73494 10.30556 7.749989 4.315314 0.4218454 0.7313402 3.859759 10.80889 7.801947 4.162045 0.01250617
0 0 0 0 0 0 0 0 0 0 0 0 0 0 0 0 0 0 0 0 0 0 0 0 0 0 0 0 0 0 0 0 0 0 0 0 0 0 0 0.04935406 3.190288 5.624138 5.335586 3.901532 0.9019682 0 0.2976596 3.06386 3.589867 2.558299 1.555859 1.524891 3.1443 7.919394 9.875418 8.998195 6.379977 5.172102 5.558829 6.461035 8.021783 8.944631 10.82436 11.35517 9.032097 8.765013 7.257619 6.629502 8.051956 10.04262 11.01762 8.84589 9.481652 11.742 13.33403 17.22737 21.72915 23.84465 25.58045 26.35536 22.80482 24.97645 19.98046 19.11237 26.95339 27.89659 29.742 30.04711 28.0729 34.67056 33.37469 31.11806 38.84339 38.81406 38.96326 29.6008 30.14935 35.80483 35.94576 36.10022 32.9887 33.70227 33.742 34.34391 36.48307 36.94805 38.90566 37.4658 35.76781 35.66527 33.895 34.0879 34.93891 35.08097 31.304 29.17242 23.83806 21.64594 28.15765 29.74111 30.03006 32.17553 31.66852 32.5372 32.48518 32.43407 32.38767 32.35542 32.23504 31.24447 31.01277 30.99746 30.93426 29.86336 29.742 29.742 26.67457 28.7421 22.4589 25.10991 28.43763 29.25386 29.70137 23.58417 22.01333 20.37773 23.46562 21.81289 20.67426 17.25895 12.742 19.47004 24.43136 31.5707 34.71804 34.46284 33.11853 31.40329 28.34021 26.00527 25.53019 28.73061 30.32008 28.09338 19.85294 21.39786 20.71809 10.75803 10.742 23.52332 28.38055 30.43993 22.60672 10.52232 10.742 10.38808 13.05717 16.58232 21.30102 25.63438 27.26757 27.14895 25.14217 26.60694 27.52329 25.75074 24.46159 21.60637 24.84631 24.69718 23.16087 18.56982 17.73153 21.53672 13.21768 18.87424 22.29187 22.43125 27.31489 26.09031 26.66765 21.28127 20.3934 24.68845 23.29117 16.42138 14.84416 18.6491 20.56339 21.61445 19.15919 22.311 23.54436 18.98874 17.88981 17.51716 15.10578 15.09982 15.14507 14.96617 18.44067 19.83821 14.55216 10.12223 11.85355 19.66007 21.63387 12.12613 17.59358 20.04646 20.738 20.80489 22.55419 20.97314 19.58892 17.88641 16.94804 16.14857 10.4983 8.338956 8.498547 13.03561 14.37898 15.36184 16.46913 16.556 17.53603 16.67616 13.34993 11.05971 11.29957 12.7151 12.30079 9.740993 8.713134 10.0797 13.63323 10.19119 10.58064 9.78748 4.317873 6.144146 10.58959 13.60013 11.11039 7.834704 0.02026337
0 0 0 0 0 0 0 0 0 0 0 0 0 0 0 0 0 0 0 0 0 0 0 0 0 0 0 0 0 0 0 0 0 0 0 0 0 0 0 0.7813909 2.05723 2.371558 1.250929 0 0 0 0.6758381 1.838248 1.742 1.742 0.8597263 2.127396 4.244174 10.43676 11.66245 9.374448 5.225502 4.742 5.335975 5.932037 8.026854 9.67097 10.65461 10.18868 7.647461 6.660375 6.750476 5.658416 6.674971 9.213861 11.742 9.772152 10.04761 11.89685 15.26587 21.20564 24.13073 25.07377 27.14505 30.78152 26.73933 26.59424 24.31558 23.53605 28.69976 29.11817 27.62513 25.08343 24.82646 27.93544 27.77152 30.92082 40.36855 37.42916 38.09149 34.57959 33.03403 35.17456 36.76488 34.41234 31.86596 31.86007 33.11209 33.97212 36.72631 37.41043 36.82964 36.50473 34.55556 35.43164 33.24356 33.62682 33.43933 32.89133 31.10843 28.41882 22.08148 19.95485 27.3356 28.29356 31.43582 31.94591 30.08332 30.42576 30.742 31.57832 30.742 30.742 30.04498 28.9521 31.06388 31.52211 30.74464 30.74273 29.82137 29.742 28.53922 25.08661 28.71637 28.39906 28.69743 29.36117 29.35079 25.37102 20.4114 21.31348 13.15158 12.742 12.742 12.742 12.742 19.7674 26.52419 32.45844 33.98648 33.4921 31.52347 29.49871 26.68141 27.27815 30.15465 25.18756 25.078 24.34422 19.43587 17.19677 24.37843 18.00672 10.742 25.85591 28.62827 28.00167 18.97404 10.742 10.7685 17.33124 17.38778 18.14382 20.26195 24.71696 27.67639 27.05772 25.80503 26.55408 24.97627 23.22269 21.97557 22.76428 25.51914 23.02732 19.88717 18.09893 19.63089 21.71689 14.17725 23.98485 25.96525 27.08427 28.55605 28.1612 26.60365 23.46893 23.68709 24.73293 23.3899 17.13258 13.47569 15.22427 19.44501 18.37166 19.68082 23.44809 22.21635 19.76778 19.14422 20.25517 17.54607 14.64597 12.98697 10.67526 13.52722 17.34592 14.81034 9.830632 10.2143 16.71831 19.7743 16.22424 18.26174 17.72303 20.74054 20.25112 20.90718 20.08578 19.17379 18.00808 17.31571 16.69178 13.50105 9.002585 7.561788 11.78825 12.56755 12.15462 12.25032 15.25779 17.13147 18.93818 15.21614 11.2984 10.55203 11.738 11.18557 10.89034 11.2159 10.58438 10.57093 9.794327 9.836226 9.137605 7.233079 10.65463 11.31983 11.61793 11.87809 12.90692 0.57524
0 0 0 0 0 0 0 0 0 0 0 0 0 0 0 0 0 0 0 0 0 0 0 0 0 0 0 0 0 0 0 0 0 0 0 0 0 0 4.242356 3.349464 0.00304398 0 0 0 0 0 2.129476 2.790334 1.908301 1.742 1.575007 4.415419 6.947511 8.664751 10.38008 9.452405 8.475496 7.875317 7.789474 7.787122 8.948278 10.0306 9.002131 8.758664 7.846227 7.789435 6.715845 6.637237 6.894981 8.728471 11.50166 11.12958 11.10619 13.56236 18.50725 26.13122 24.742 23.88352 27.07065 31.33647 27.82336 27.78975 28.52246 31.66549 33.87331 33.38571 26.01719 23.69486 24.83873 25.07614 27.33096 35.07602 41.73643 36.48499 36.08688 37.73881 35.57318 34.63909 34.48738 31.60126 30.61076 30.74273 32.53468 33.93589 36.742 36.40553 34.86553 33.60583 33.09377 34.61535 32.58593 30.72349 32.86297 33.75776 31.70988 28.34033 22.18365 22.12774 26.52707 29.00717 31.61073 31.54974 29.74096 30.4314 31.53745 31.88534 31.61473 31.65433 30.25698 27.79515 30.6111 32.71793 31.72155 31.72205 30.72784 30.742 29.65132 28.759 27.90686 28.34233 27.51389 30.15998 29.16689 25.86442 19.72912 21.95313 12.742 12.742 12.742 12.742 12.742 19.35712 30.7089 32.17727 30.34285 30.45314 28.64 27.01915 25.98561 28.68644 29.7794 24.25785 24.11369 24.09017 18.79114 14.6567 19.74643 18.47546 16.89069 21.28051 21.21168 17.20927 10.742 10.742 10.742 19.09709 19.37493 19.30867 21.51064 25.01515 26.81493 25.45217 25.09459 25.63932 24.64718 23.07061 21.253 20.84753 25.98872 23.82225 20.39738 20.51398 21.65011 20.58959 17.89858 23.14405 25.07157 26.01839 25.96766 26.9062 26.6599 24.79186 23.75672 25.67543 21.75739 18.18363 13.17059 11.16623 16.47556 12.19509 17.82218 22.73541 19.81701 19.82932 20.13088 23.39318 20.86306 18.72483 15.57166 9.960297 10.71825 14.17609 16.67031 9.826168 12.23266 15.4986 17.70166 17.91574 20.0328 16.83141 19.67554 19.64613 19.738 19.738 19.62393 19.73601 18.63081 17.92669 15.42928 9.774308 8.720228 9.397338 10.73773 12.06204 13.14972 14.76798 16.45013 16.80649 13.07248 14.30011 10.03811 12.49945 13.0198 9.676839 11.13214 10.39808 10.51761 7.699122 9.796237 8.626607 3.444903 9.13046 13.38599 8.722525 10.84406 10.84954 0
0 0 0 0 0 0 0 0 0 0 0 0 0 0 0 0 0 0 0 0 0 0 0 0 0 0 0 0 0 0 0 0 0 0 0 0 0 0.6829242 4.73428 2.361613 0 0 0 0 0 0 0.2436077 1.745206 1.302643 1.768075 2.195632 4.224487 6.218442 7.187862 8.790032 8.730268 8.730639 8.64338 7.760506 8.668622 8.881093 8.655531 6.738095 6.782775 7.780594 8.917143 8.884116 7.764584 5.952331 7.787455 10.6887 10.742 12.30318 17.97865 23.2233 24.7548 25.33026 24.8626 24.83864 28.47376 29.59287 31.16575 33.25791 34.29481 33.06102 32.31141 28.81227 29.74022 27.83178 32.71801 35.16963 43.49207 44.26072 36.58096 34.21576 37.91731 36.04023 33.091 31.34947 28.93063 29.57507 29.98752 31.742 32.99442 35.31863 34.89973 32.19259 29.15191 30.86496 31.64529 30.48535 30.63748 33.67976 33.61362 32.61136 26.18431 21.74648 22.36933 27.93171 30.63473 31.37717 31.742 30.98196 31.20401 31.85125 30.92658 30.8712 30.83068 29.82298 23.66672 28.08741 32.84655 30.72605 29.94212 29.1367 29.742 29.74479 30.742 30.68365 29.63266 23.62044 27.30072 27.30101 21.58997 19.72642 22.86842 12.742 12.742 12.742 12.742 12.742 18.82432 30.60868 30.6714 28.79698 26.76511 24.3363 22.56742 24.87914 25.57854 22.93967 25.08872 24.37799 23.67761 16.09751 13.74352 13.67081 16.48457 17.35239 10.742 10.8013 10.74455 10.742 10.742 10.742 10.73806 18.93346 19.1269 22.56063 25.36404 26.44214 25.22366 25.02855 24.60337 23.26212 22.90082 22.68004 22.56146 24.98855 24.35426 23.34356 22.11291 20.94333 18.32976 18.21147 21.13579 23.9804 23.53375 25.53349 25.7421 25.9033 22.3875 20.7578 22.70184 20.21226 17.6585 14.7048 10.92918 11.91023 11.35571 18.74055 21.47887 20.42715 21.31905 20.30238 22.81638 20.76787 20.93512 20.91373 13.05732 11.66257 12.64295 15.78053 11.1816 13.30856 17.79301 16.39665 14.49223 20.21591 18.59357 18.57587 18.14608 19.02205 19.738 20.67961 20.80303 19.02533 17.48737 15.98761 11.21032 11.24363 9.912761 8.801258 10.82858 13.13721 15.55054 14.14328 12.3303 13.34088 16.59611 13.05658 11.47701 10.30436 6.549473 9.952617 8.742466 7.675702 5.907122 8.516582 8.204316 4.714664 4.912026 6.551077 2.356119 2.54249 0 0
0 0 0 0 0 0 0 0 0 0 0 0 0 0 0 0 0 0 0 0 0 0 0 0 0 0 0 0 0 0 0 0 0 0 0 0 0 1.812454 0.9605914 0 0 0 0 0 0 0 0 0.7347003 1.818018 2.674559 2.880232 3.732235 4.65938 5.764601 7.553058 7.751245 7.425049 7.361713 6.719366 7.412282 7.445149 7.665983 7.225703 7.278646 9.325025 11.21547 13.76664 11.70327 7.438853 6.682563 9.558548 10.77494 14.97136 18.9287 22.94333 24.78958 28.4618 27.89801 26.96181 29.03509 32.27878 34.94881 36.14294 37.8475 36.0588 34.94555 36.47901 35.65721 35.96257 37.83006 39.47125 46.79845 44.96327 36.2981 37.8196 36.71274 34.75148 30.56333 31.84407 31.02163 29.19333 30.4322 30.742 31.90113 33.2225 33.23243 28.81272 26.83726 28.03449 26.94915 28.11334 32.94575 31.14962 32.74201 32.63396 23.15401 19.742 21.94163 29.81331 31.71844 32.36668 31.742 31.53431 30.51306 30.41113 29.31153 29.59925 30.86533 30.61658 22.54144 22.92997 31.49839 30.03228 28.80485 28.69072 29.76372 30.0315 30.79131 30.85735 29.96073 22.05669 23.68509 25.62255 20.04866 21.64494 13.32291 12.742 12.742 12.742 12.742 12.742 13.31926 30.79103 31.70185 28.79131 25.74813 23.81091 21.742 21.90093 24.14203 25.85911 19.87883 11.742 11.742 11.84576 11.77322 14.16396 14.8905 11.28854 10.742 10.6819 16.703 11.12434 10.742 10.742 10.74336 15.68122 17.90655 22.71067 25.58157 26.26217 27.06539 26.01313 24.5364 23.00273 22.23597 21.54083 23.43876 25.64601 25.05476 24.55272 22.7493 22.61672 15.791 18.19978 20.45997 21.57897 22.92712 25.73391 24.35621 23.02711 22.09864 20.87179 21.43593 18.21339 16.18653 16.92609 11.81584 11.21885 11.99729 17.90929 17.94398 18.73651 19.31637 20.15222 22.44027 22.69301 22.04306 22.22601 18.74353 16.46207 16.49801 16.12168 8.820684 15.76429 18.43003 18.66358 14.92171 17.21028 17.37718 18.58685 17.76548 17.75941 19.738 19.738 19.73655 19.02791 13.83961 15.88652 15.74414 14.77184 12.72336 7.144869 7.699007 11.52508 14.76443 12.83802 7.184022 14.9685 16.44082 15.14113 8.806434 7.591715 6.318944 10.83088 6.377377 7.65607 7.468596 7.73786 6.73817 5.936791 0.3707787 0 0 0 0 0
0 0 0 0 0 0 0 0 0 0 0 0 0 0 0 0 0 0 0 0 0 0 0 0 0 0 0 0 0 0 0 0 0 0 0 0 0 0 0 0 0 0 0 0 0 0 0 0.0001649564 1.691449 3.746675 3.755803 4.570076 4.686167 5.736941 5.621872 7.454487 6.742001 5.278333 4.289078 5.037606 7.045535 7.998663 10.35284 10.43373 12.39819 13.6662 17.38432 16.09042 10.61514 7.030177 7.841586 9.202198 15.75926 17.92661 20.76016 22.86319 27.69716 29.78353 29.92558 30.06957 34.39891 35.88985 37.30498 37.41656 37.00878 36.22206 41.29001 38.929 36.9371 37.83397 42.88864 47.82041 44.60094 37.87752 41.12614 36.96406 37.2217 34.41344 34.71112 37.52072 32.60931 30.76747 30.742 32.38567 33.94233 30.84231 24.63441 25.26778 27.62715 25.73059 28.35804 30.83861 25.50325 33.03917 31.28304 23.24623 19.62375 22.07081 30.1416 31.79569 32.81824 31.92299 30.6736 29.742 28.82854 27.45961 28.80853 31.52515 30.63931 25.7431 20.22257 29.88557 29.65355 29.5393 29.33354 29.55574 30.46651 30.81898 30.39231 27.78388 22.29796 21.72833 23.23841 16.01387 12.82057 12.742 12.742 12.742 12.742 12.742 12.742 12.87452 27.69548 30.7512 26.62393 24.61889 23.82309 19.74747 15.88201 18.14118 19.55579 12.1278 11.742 11.742 11.742 11.742 11.742 14.21329 16.80661 17.75947 10.82585 27.71859 25.97918 10.742 10.742 12.78731 19.61527 17.39568 21.50905 24.86771 26.19206 27.57599 25.62646 24.62727 24.10681 20.44623 17.53273 20.72541 26.70362 25.67862 24.66313 24.03231 24.39693 16.22709 17.28739 19.48017 18.82134 22.08328 25.63651 21.50116 21.73838 22.65559 22.4909 20.06379 15.82257 17.34292 16.80585 10.90365 11.12519 13.28958 15.99283 16.01713 17.49629 17.98402 19.2741 20.82433 22.35028 21.71325 21.59113 21.64749 20.61791 18.74844 15.1187 8.406965 15.0757 19.29022 19.03331 14.02547 16.2788 17.01949 18.92425 20.2013 19.49922 19.738 19.738 19.17944 16.9815 16.95734 17.28547 17.5589 17.03346 15.35278 11.77551 5.78395 9.13742 14.19667 13.74096 5.886851 11.81638 15.10604 13.91529 8.450669 9.408816 10.79243 13.39917 6.519723 11.28258 10.30545 7.297485 6.131591 3.542481 0 0 0 0 0 0
0 0 0 0 0 0 0 0 0 0 0 0 0 0 0 0 0 0 0 0 0 0 0 0 0 0 0 0 0 0 0 0 0 0 0 0 0 0 0 0 0 0 0 0 0 0 0 0.4960008 0.7792434 1.961327 2.746813 2.604004 3.66873 5.475176 2.929002 3.664028 6.696276 3.442897 4.141078 7.525107 9.313495 11.53035 12.99091 13.66097 14.79833 15.35758 18.50421 16.82364 13.25049 9.906328 6.577515 7.808885 12.33505 15.11584 18.88418 20.6228 24.80591 30.4381 33.26664 31.52408 35.82058 34.28016 35.76702 34.97937 36.22124 37.18833 41.71001 39.87889 36.8262 37.98899 44.34049 49.01718 44.39817 37.33933 44.552 40.60365 39.66559 37.31705 38.59675 40.41598 33.60592 30.89643 29.31617 32.069 33.68839 30.98806 23.75837 25.44127 25.20374 28.27252 31.5099 31.78464 26.16403 27.95038 28.20583 19.16577 19.69447 26.29884 29.96472 30.47324 30.26354 30.56803 29.76178 30.65504 30.09487 29.61465 30.20839 31.34664 28.63638 29.16553 26.94348 28.09608 28.43591 28.742 28.742 28.76082 29.79898 30.742 29.57815 25.01952 20.80409 20.21941 17.23149 12.742 12.742 12.742 12.742 12.742 12.742 12.742 12.742 12.742 21.59838 28.07932 25.38812 22.97963 22.5435 16.70242 11.74149 12.77877 13.04974 11.742 11.742 11.742 11.742 11.742 11.742 15.12428 24.29802 23.68605 18.81132 26.73387 32.78083 19.63333 10.742 10.73904 24.07308 21.16687 19.57592 23.83361 26.3065 26.11198 24.87135 24.09106 23.25893 17.25912 17.47471 20.92747 23.83246 25.25669 25.48392 25.42926 25.41808 22.40363 15.07833 15.83009 16.78607 19.26413 22.90225 19.74824 22.41917 22.38178 22.44484 18.73815 16.62185 19.34736 12.94608 9.738 10.0676 11.90274 14.50397 15.46957 17.58984 18.36576 18.51558 19.48451 20.44038 20.80432 20.34813 21.67993 22.13626 20.7318 16.92463 8.893904 13.40028 18.57447 18.52236 15.22368 17.2609 17.738 20.26793 20.52931 18.99262 18.74277 18.48444 16.26465 16.27815 18.1992 18.738 18.28875 17.72782 16.36797 15.61325 9.2047 6.422628 11.12492 12.18225 6.334015 12.31661 13.79353 11.89965 10.11545 8.013763 13.58716 13.38495 9.226605 13.68408 9.113395 3.480222 4.518985 1.352939 0 0 0 0 0 0
0 0 0 0 0 0 0 0 0 0 0 0 0 0 0 0 0 0 0 0 0 0 0 0 0 0 0 0 0 0 0 0 0 0 0 0 0 0 0 0 0 0 0 0 0 0 0 0.5437472 0.1926533 2.475452 0.8278676 1.524571 3.104954 4.516109 3.255345 0.8999802 5.674706 2.642549 6.942147 12.89684 11.63629 15.78016 18.36575 19.36797 19.54158 20.27496 19.03022 16.23046 11.89627 10.85333 6.743424 8.314266 8.30749 13.48828 13.27828 19.39385 27.81394 31.18314 30.32958 36.12619 37.4001 36.24639 36.85031 36.49049 38.99358 39.75648 42.07551 40.54795 42.07573 42.00877 44.96046 51.41969 43.48144 36.29367 49.01126 45.20744 40.56465 38.64167 40.30409 39.08316 32.46498 30.27018 28.56498 31.742 33.46233 31.94901 26.95288 27.09382 25.28499 31.47541 33.69844 32.74215 28.73322 25.79951 24.25238 18.51556 19.82906 27.69222 30.23988 30.73329 29.7227 30.50397 30.80479 31.80214 31.81847 31.01661 30.91285 30.74934 29.04398 29.98086 30.2115 29.73606 29.37184 29.39677 29.46225 29.55491 30.5915 30.742 29.91646 24.83248 22.83441 20.27808 12.742 12.742 12.742 12.742 12.742 12.742 12.742 12.742 12.742 12.742 13.18511 25.26739 26.96671 21.73063 18.72799 12.33588 11.742 11.742 11.742 11.742 11.742 11.742 11.742 11.742 11.742 18.45467 29.78481 23.98938 23.17552 22.56233 32.73654 30.12613 12.93175 11.32415 22.61681 20.09832 18.57915 24.2766 25.61178 24.68584 24.91909 25.17828 22.6244 17.58816 17.49395 19.27262 21.27201 25.17355 24.42757 24.35561 25.99542 23.48035 17.58837 14.97149 21.37739 18.05577 16.65688 19.97323 21.73957 22.67183 23.51754 20.50539 20.60938 17.45206 10.42992 11.18094 11.16152 10.83622 11.95275 12.88055 15.00798 17.36066 17.738 18.73845 20.1311 21.0515 18.81837 19.78788 20.60007 21.83949 20.59599 9.215042 12.4803 16.71692 17.7413 18.46699 18.40016 18.56014 20.05556 19.10679 16.43436 17.12681 16.74724 13.00445 16.28972 18.094 18.94116 18.60438 18.27898 17.66849 17.37967 13.90643 8.351587 7.044198 10.35775 8.30308 13.47338 16.78239 14.024 11.12154 7.415263 12.20477 11.64672 11.43182 12.87678 9.334538 2.532511 2.126405 0.4428483 0 0 0 0 0 0
0 0 0 0 0 0 0 0 0 0 0 0 0 0 0 0 0 0 0 0 0 0 0 0 0 0 0 0 0 0 0 0 0 0 0 0 0 0 0 0 0 0 0 0 2.481487 0.252509 0 0 0 1.228358 0.09369928 0.7658255 3.213415 3.532374 2.968061 0.07302606 4.306557 2.843918 7.321132 16.61956 13.75753 20.82847 24.82351 25.98226 25.69324 24.61147 20.74432 14.89162 10.31265 10.15838 8.648945 9.760817 10.25067 14.66553 15.07413 18.31796 27.23321 29.46979 28.48293 41.56938 44.10722 43.27301 42.72969 40.62896 37.35522 35.59857 40.36386 46.39637 46.20064 44.81775 45.60241 47.83282 43.93298 40.76585 47.68544 47.43309 38.43198 38.35975 40.54958 36.71172 32.17677 28.66735 26.75181 31.1911 33.45433 32.84016 31.74202 28.45878 27.66465 34.12111 34.76438 33.59859 29.60252 24.44146 19.64977 20.06606 19.80803 26.75047 30.70546 31.6638 30.3649 31.68001 31.12796 31.7268 31.66935 32.19475 31.8076 30.63743 29.08685 27.408 29.73946 31.20686 29.82587 29.96034 30.86955 30.40085 30.79705 30.742 30.742 26.60355 22.36358 19.67685 14.41961 12.742 12.742 12.742 12.742 12.742 12.742 12.742 12.742 12.742 12.74543 20.67383 23.08695 21.75427 16.93872 10.93143 11.742 11.742 11.742 11.742 11.742 11.742 11.742 11.742 11.742 14.99749 28.31534 19.77394 19.64704 24.41417 32.44446 32.66285 24.5901 11.36964 11.43783 14.35271 16.7498 22.11396 24.23133 23.13112 24.78621 25.0579 21.8268 17.54877 15.58271 16.87234 18.06607 22.01394 23.738 24.08533 26.13615 23.18287 18.22008 14.39105 22.738 19.65715 17.64802 20.2791 22.81215 22.98844 23.45855 21.7715 21.37744 18.35868 14.37311 14.20332 13.04232 10.36443 10.55799 11.73059 13.14003 16.60848 18.19595 19.34647 21.14427 18.76432 17.49213 21.01932 21.738 21.738 19.99146 8.492248 12.17976 15.66847 17.52757 19.72297 19.738 19.738 18.89604 16.58424 14.66144 16.19267 15.77389 11.69698 14.17881 18.34281 19.13342 17.87175 17.70086 16.52174 16.56474 16.90467 11.36993 3.25178 8.242613 10.09133 13.23001 17.32768 15.71776 11.54093 7.007905 9.955132 10.66688 12.54241 12.42536 10.44745 5.231778 2.451483 0.4982578 0 0 0 0 0 0
